ncols         118
nrows         32
xllcorner     391681.964686
yllcorner     4766120.40277
cellsize      3
NODATA_value  -9999
3.576000000000000227e+02 3.576200000000000045e+02 3.576499999999999773e+02 3.576899999999999977e+02 3.577400000000000091e+02 3.577799999999999727e+02 3.578299999999999841e+02 3.578799999999999955e+02 3.579300000000000068e+02 3.579900000000000091e+02 3.580199999999999818e+02 3.580600000000000023e+02 3.580699999999999932e+02 3.580899999999999750e+02 3.580500000000000114e+02 3.580500000000000114e+02 3.580500000000000114e+02 3.580199999999999818e+02 3.580400000000000205e+02 3.580299999999999727e+02 3.580199999999999818e+02 3.580299999999999727e+02 3.580400000000000205e+02 3.580799999999999841e+02 3.580699999999999932e+02 3.580699999999999932e+02 3.581100000000000136e+02 3.581299999999999955e+02 3.581700000000000159e+02 3.582200000000000273e+02 3.582500000000000000e+02 3.582699999999999818e+02 3.583199999999999932e+02 3.583799999999999955e+02 3.584100000000000250e+02 3.584300000000000068e+02 3.584499999999999886e+02 3.584499999999999886e+02 3.584499999999999886e+02 3.584700000000000273e+02 3.584800000000000182e+02 3.584700000000000273e+02 3.584700000000000273e+02 3.584599999999999795e+02 3.584800000000000182e+02 3.584800000000000182e+02 3.584599999999999795e+02 3.585199999999999818e+02 3.585000000000000000e+02 3.585400000000000205e+02 3.585699999999999932e+02 3.585600000000000023e+02 3.585600000000000023e+02 3.585400000000000205e+02 3.585699999999999932e+02 3.586100000000000136e+02 3.586100000000000136e+02 3.586600000000000250e+02 3.586700000000000159e+02 3.586999999999999886e+02 3.587400000000000091e+02 3.587500000000000000e+02 3.587699999999999818e+02 3.588000000000000114e+02 3.588399999999999750e+02 3.588500000000000227e+02 3.588500000000000227e+02 3.588799999999999955e+02 3.588299999999999841e+02 3.588000000000000114e+02 3.587900000000000205e+02 3.587500000000000000e+02 3.587400000000000091e+02 3.587400000000000091e+02 3.587300000000000182e+02 3.587500000000000000e+02 3.587400000000000091e+02 3.587699999999999818e+02 3.587599999999999909e+02 3.587599999999999909e+02 3.587300000000000182e+02 3.587300000000000182e+02 3.586899999999999977e+02 3.586800000000000068e+02 3.586700000000000159e+02 3.586399999999999864e+02 3.586200000000000045e+02 3.585799999999999841e+02 3.585500000000000114e+02 3.585299999999999727e+02 3.585199999999999818e+02 3.585000000000000000e+02 3.585199999999999818e+02 3.585199999999999818e+02 3.584700000000000273e+02 3.584499999999999886e+02 3.584599999999999795e+02 3.584499999999999886e+02 3.584499999999999886e+02 3.584599999999999795e+02 3.584300000000000068e+02 3.584300000000000068e+02 3.584300000000000068e+02 3.584200000000000159e+02 3.584100000000000250e+02 3.583999999999999773e+02 3.583299999999999841e+02 3.583299999999999841e+02 3.583199999999999932e+02 3.583100000000000023e+02 3.583000000000000114e+02 3.583100000000000023e+02 3.583100000000000023e+02 3.583199999999999932e+02 3.583299999999999841e+02 3.583500000000000227e+02 3.583700000000000045e+02 3.583999999999999773e+02
3.575899999999999750e+02 3.576399999999999864e+02 3.576700000000000159e+02 3.577200000000000273e+02 3.577599999999999909e+02 3.578100000000000023e+02 3.578500000000000227e+02 3.578799999999999955e+02 3.579599999999999795e+02 3.579900000000000091e+02 3.580400000000000205e+02 3.581000000000000227e+02 3.581100000000000136e+02 3.580799999999999841e+02 3.580799999999999841e+02 3.580699999999999932e+02 3.580699999999999932e+02 3.580299999999999727e+02 3.580199999999999818e+02 3.580400000000000205e+02 3.580400000000000205e+02 3.580199999999999818e+02 3.580199999999999818e+02 3.580699999999999932e+02 3.580600000000000023e+02 3.580699999999999932e+02 3.581100000000000136e+02 3.581200000000000045e+02 3.581600000000000250e+02 3.582200000000000273e+02 3.582500000000000000e+02 3.582900000000000205e+02 3.583399999999999750e+02 3.583500000000000227e+02 3.584100000000000250e+02 3.584200000000000159e+02 3.584200000000000159e+02 3.584399999999999977e+02 3.584499999999999886e+02 3.584399999999999977e+02 3.584599999999999795e+02 3.584599999999999795e+02 3.584700000000000273e+02 3.584800000000000182e+02 3.584700000000000273e+02 3.584800000000000182e+02 3.584900000000000091e+02 3.585099999999999909e+02 3.585500000000000114e+02 3.585299999999999727e+02 3.585400000000000205e+02 3.585400000000000205e+02 3.585500000000000114e+02 3.585600000000000023e+02 3.585699999999999932e+02 3.585899999999999750e+02 3.586200000000000045e+02 3.586100000000000136e+02 3.586299999999999955e+02 3.586899999999999977e+02 3.587200000000000273e+02 3.587400000000000091e+02 3.587500000000000000e+02 3.587799999999999727e+02 3.588100000000000023e+02 3.588399999999999750e+02 3.588299999999999841e+02 3.588299999999999841e+02 3.588000000000000114e+02 3.587699999999999818e+02 3.587400000000000091e+02 3.587200000000000273e+02 3.587400000000000091e+02 3.587300000000000182e+02 3.587300000000000182e+02 3.587400000000000091e+02 3.587200000000000273e+02 3.587500000000000000e+02 3.587400000000000091e+02 3.587400000000000091e+02 3.587200000000000273e+02 3.587099999999999795e+02 3.586899999999999977e+02 3.586499999999999773e+02 3.586200000000000045e+02 3.586000000000000227e+02 3.585899999999999750e+02 3.585699999999999932e+02 3.585500000000000114e+02 3.585000000000000000e+02 3.584800000000000182e+02 3.584800000000000182e+02 3.584599999999999795e+02 3.584599999999999795e+02 3.584700000000000273e+02 3.584499999999999886e+02 3.584399999999999977e+02 3.584200000000000159e+02 3.584399999999999977e+02 3.584300000000000068e+02 3.584300000000000068e+02 3.584200000000000159e+02 3.584100000000000250e+02 3.583999999999999773e+02 3.583899999999999864e+02 3.583600000000000136e+02 3.583100000000000023e+02 3.583000000000000114e+02 3.583000000000000114e+02 3.582900000000000205e+02 3.582900000000000205e+02 3.582900000000000205e+02 3.582900000000000205e+02 3.582900000000000205e+02 3.583000000000000114e+02 3.583199999999999932e+02 3.583399999999999750e+02 3.583700000000000045e+02
3.575899999999999750e+02 3.576499999999999773e+02 3.576700000000000159e+02 3.577200000000000273e+02 3.577699999999999818e+02 3.578100000000000023e+02 3.578700000000000045e+02 3.578999999999999773e+02 3.579599999999999795e+02 3.580099999999999909e+02 3.580500000000000114e+02 3.580899999999999750e+02 3.581100000000000136e+02 3.581200000000000045e+02 3.580799999999999841e+02 3.580799999999999841e+02 3.580400000000000205e+02 3.580099999999999909e+02 3.579900000000000091e+02 3.580099999999999909e+02 3.580299999999999727e+02 3.580299999999999727e+02 3.580299999999999727e+02 3.580500000000000114e+02 3.580500000000000114e+02 3.580699999999999932e+02 3.580899999999999750e+02 3.581299999999999955e+02 3.581600000000000250e+02 3.581700000000000159e+02 3.582400000000000091e+02 3.582799999999999727e+02 3.583399999999999750e+02 3.583500000000000227e+02 3.583799999999999955e+02 3.584499999999999886e+02 3.584200000000000159e+02 3.584399999999999977e+02 3.584300000000000068e+02 3.584200000000000159e+02 3.584399999999999977e+02 3.584499999999999886e+02 3.584499999999999886e+02 3.584599999999999795e+02 3.584800000000000182e+02 3.584900000000000091e+02 3.585000000000000000e+02 3.585199999999999818e+02 3.585099999999999909e+02 3.585199999999999818e+02 3.585299999999999727e+02 3.585500000000000114e+02 3.585699999999999932e+02 3.585600000000000023e+02 3.585799999999999841e+02 3.585899999999999750e+02 3.585899999999999750e+02 3.586200000000000045e+02 3.586600000000000250e+02 3.586899999999999977e+02 3.586899999999999977e+02 3.586899999999999977e+02 3.587500000000000000e+02 3.587699999999999818e+02 3.587699999999999818e+02 3.588000000000000114e+02 3.588399999999999750e+02 3.588199999999999932e+02 3.587900000000000205e+02 3.587699999999999818e+02 3.587300000000000182e+02 3.587300000000000182e+02 3.587200000000000273e+02 3.587099999999999795e+02 3.587200000000000273e+02 3.587099999999999795e+02 3.587200000000000273e+02 3.586999999999999886e+02 3.587099999999999795e+02 3.587099999999999795e+02 3.587300000000000182e+02 3.587300000000000182e+02 3.586899999999999977e+02 3.586499999999999773e+02 3.586200000000000045e+02 3.586200000000000045e+02 3.585899999999999750e+02 3.585699999999999932e+02 3.585400000000000205e+02 3.585299999999999727e+02 3.585000000000000000e+02 3.584599999999999795e+02 3.584700000000000273e+02 3.584599999999999795e+02 3.584399999999999977e+02 3.584200000000000159e+02 3.584300000000000068e+02 3.584200000000000159e+02 3.584100000000000250e+02 3.584100000000000250e+02 3.583999999999999773e+02 3.584200000000000159e+02 3.583999999999999773e+02 3.583799999999999955e+02 3.583799999999999955e+02 3.583600000000000136e+02 3.582799999999999727e+02 3.582699999999999818e+02 3.582599999999999909e+02 3.582599999999999909e+02 3.582500000000000000e+02 3.582500000000000000e+02 3.582599999999999909e+02 3.582599999999999909e+02 3.582699999999999818e+02 3.582900000000000205e+02 3.583100000000000023e+02 3.583399999999999750e+02
3.576299999999999955e+02 3.576700000000000159e+02 3.576999999999999886e+02 3.577400000000000091e+02 3.577900000000000205e+02 3.578000000000000114e+02 3.578700000000000045e+02 3.579300000000000068e+02 3.579700000000000273e+02 3.580299999999999727e+02 3.580799999999999841e+02 3.581200000000000045e+02 3.581100000000000136e+02 3.581299999999999955e+02 3.581000000000000227e+02 3.580500000000000114e+02 3.580299999999999727e+02 3.580099999999999909e+02 3.580199999999999818e+02 3.580199999999999818e+02 3.580000000000000000e+02 3.580199999999999818e+02 3.579900000000000091e+02 3.580099999999999909e+02 3.580099999999999909e+02 3.580299999999999727e+02 3.580600000000000023e+02 3.581000000000000227e+02 3.581299999999999955e+02 3.581600000000000250e+02 3.582099999999999795e+02 3.582400000000000091e+02 3.583100000000000023e+02 3.583600000000000136e+02 3.583899999999999864e+02 3.583999999999999773e+02 3.584100000000000250e+02 3.583899999999999864e+02 3.584300000000000068e+02 3.584200000000000159e+02 3.584300000000000068e+02 3.584300000000000068e+02 3.584399999999999977e+02 3.584399999999999977e+02 3.584599999999999795e+02 3.584700000000000273e+02 3.584599999999999795e+02 3.585000000000000000e+02 3.585199999999999818e+02 3.585400000000000205e+02 3.585500000000000114e+02 3.585299999999999727e+02 3.585600000000000023e+02 3.585500000000000114e+02 3.585600000000000023e+02 3.585699999999999932e+02 3.585899999999999750e+02 3.586100000000000136e+02 3.586299999999999955e+02 3.586600000000000250e+02 3.586999999999999886e+02 3.587099999999999795e+02 3.587400000000000091e+02 3.587400000000000091e+02 3.587599999999999909e+02 3.587799999999999727e+02 3.588000000000000114e+02 3.587900000000000205e+02 3.587599999999999909e+02 3.587400000000000091e+02 3.587099999999999795e+02 3.586600000000000250e+02 3.586800000000000068e+02 3.586700000000000159e+02 3.587099999999999795e+02 3.586899999999999977e+02 3.587099999999999795e+02 3.586899999999999977e+02 3.587099999999999795e+02 3.587200000000000273e+02 3.586999999999999886e+02 3.586899999999999977e+02 3.586899999999999977e+02 3.586399999999999864e+02 3.586299999999999955e+02 3.585899999999999750e+02 3.585699999999999932e+02 3.585600000000000023e+02 3.585299999999999727e+02 3.585099999999999909e+02 3.584900000000000091e+02 3.584599999999999795e+02 3.584300000000000068e+02 3.584200000000000159e+02 3.584100000000000250e+02 3.584200000000000159e+02 3.583899999999999864e+02 3.583899999999999864e+02 3.583799999999999955e+02 3.583799999999999955e+02 3.583799999999999955e+02 3.583899999999999864e+02 3.583799999999999955e+02 3.583700000000000045e+02 3.583600000000000136e+02 3.583299999999999841e+02 3.582599999999999909e+02 3.582400000000000091e+02 3.582400000000000091e+02 3.582300000000000182e+02 3.582200000000000273e+02 3.582200000000000273e+02 3.582300000000000182e+02 3.582400000000000091e+02 3.582500000000000000e+02 3.582599999999999909e+02 3.582900000000000205e+02 3.583000000000000114e+02
3.576200000000000045e+02 3.576399999999999864e+02 3.576899999999999977e+02 3.577400000000000091e+02 3.577799999999999727e+02 3.578600000000000136e+02 3.578999999999999773e+02 3.579499999999999886e+02 3.579700000000000273e+02 3.580299999999999727e+02 3.580699999999999932e+02 3.580899999999999750e+02 3.581299999999999955e+02 3.581200000000000045e+02 3.580699999999999932e+02 3.580400000000000205e+02 3.580199999999999818e+02 3.580000000000000000e+02 3.580199999999999818e+02 3.580299999999999727e+02 3.579900000000000091e+02 3.580099999999999909e+02 3.579900000000000091e+02 3.580000000000000000e+02 3.580099999999999909e+02 3.580299999999999727e+02 3.580400000000000205e+02 3.580600000000000023e+02 3.581200000000000045e+02 3.581700000000000159e+02 3.581899999999999977e+02 3.582300000000000182e+02 3.582699999999999818e+02 3.583399999999999750e+02 3.583700000000000045e+02 3.583799999999999955e+02 3.583999999999999773e+02 3.583899999999999864e+02 3.584100000000000250e+02 3.583999999999999773e+02 3.583999999999999773e+02 3.584100000000000250e+02 3.583999999999999773e+02 3.584200000000000159e+02 3.584399999999999977e+02 3.584599999999999795e+02 3.584700000000000273e+02 3.584499999999999886e+02 3.585000000000000000e+02 3.585099999999999909e+02 3.585099999999999909e+02 3.585299999999999727e+02 3.585400000000000205e+02 3.585600000000000023e+02 3.585500000000000114e+02 3.585500000000000114e+02 3.585799999999999841e+02 3.585799999999999841e+02 3.586000000000000227e+02 3.586499999999999773e+02 3.586600000000000250e+02 3.586600000000000250e+02 3.586999999999999886e+02 3.587200000000000273e+02 3.587500000000000000e+02 3.587599999999999909e+02 3.587599999999999909e+02 3.587400000000000091e+02 3.587400000000000091e+02 3.587200000000000273e+02 3.586999999999999886e+02 3.586800000000000068e+02 3.586700000000000159e+02 3.586499999999999773e+02 3.586700000000000159e+02 3.586700000000000159e+02 3.586999999999999886e+02 3.586800000000000068e+02 3.587099999999999795e+02 3.586999999999999886e+02 3.586899999999999977e+02 3.586700000000000159e+02 3.586700000000000159e+02 3.586200000000000045e+02 3.586200000000000045e+02 3.585899999999999750e+02 3.585799999999999841e+02 3.585500000000000114e+02 3.585199999999999818e+02 3.585000000000000000e+02 3.584800000000000182e+02 3.584399999999999977e+02 3.584300000000000068e+02 3.584200000000000159e+02 3.583999999999999773e+02 3.583899999999999864e+02 3.583700000000000045e+02 3.583500000000000227e+02 3.583600000000000136e+02 3.583600000000000136e+02 3.583399999999999750e+02 3.583600000000000136e+02 3.583500000000000227e+02 3.583500000000000227e+02 3.583199999999999932e+02 3.583000000000000114e+02 3.582400000000000091e+02 3.582300000000000182e+02 3.582200000000000273e+02 3.582099999999999795e+02 3.581999999999999886e+02 3.581999999999999886e+02 3.582099999999999795e+02 3.582200000000000273e+02 3.582300000000000182e+02 3.582400000000000091e+02 3.582500000000000000e+02 3.582699999999999818e+02
3.576100000000000136e+02 3.576499999999999773e+02 3.576899999999999977e+02 3.577200000000000273e+02 3.577699999999999818e+02 3.578100000000000023e+02 3.578700000000000045e+02 3.579300000000000068e+02 3.579800000000000182e+02 3.580199999999999818e+02 3.580500000000000114e+02 3.581000000000000227e+02 3.580899999999999750e+02 3.581000000000000227e+02 3.580699999999999932e+02 3.580500000000000114e+02 3.580199999999999818e+02 3.580000000000000000e+02 3.579700000000000273e+02 3.579700000000000273e+02 3.579700000000000273e+02 3.580000000000000000e+02 3.579800000000000182e+02 3.579599999999999795e+02 3.579599999999999795e+02 3.580000000000000000e+02 3.580000000000000000e+02 3.580400000000000205e+02 3.580799999999999841e+02 3.581200000000000045e+02 3.581600000000000250e+02 3.581800000000000068e+02 3.582300000000000182e+02 3.582699999999999818e+02 3.583100000000000023e+02 3.583399999999999750e+02 3.583399999999999750e+02 3.583600000000000136e+02 3.583500000000000227e+02 3.583600000000000136e+02 3.583799999999999955e+02 3.583899999999999864e+02 3.584100000000000250e+02 3.584100000000000250e+02 3.583999999999999773e+02 3.584399999999999977e+02 3.584300000000000068e+02 3.584399999999999977e+02 3.584700000000000273e+02 3.585000000000000000e+02 3.585199999999999818e+02 3.585099999999999909e+02 3.585299999999999727e+02 3.585299999999999727e+02 3.585099999999999909e+02 3.585199999999999818e+02 3.585400000000000205e+02 3.585600000000000023e+02 3.585799999999999841e+02 3.586000000000000227e+02 3.586299999999999955e+02 3.586499999999999773e+02 3.586700000000000159e+02 3.586899999999999977e+02 3.587200000000000273e+02 3.587400000000000091e+02 3.587400000000000091e+02 3.587300000000000182e+02 3.587099999999999795e+02 3.586999999999999886e+02 3.586700000000000159e+02 3.586399999999999864e+02 3.586299999999999955e+02 3.586299999999999955e+02 3.586399999999999864e+02 3.586499999999999773e+02 3.586299999999999955e+02 3.586600000000000250e+02 3.586800000000000068e+02 3.587099999999999795e+02 3.586800000000000068e+02 3.586800000000000068e+02 3.586499999999999773e+02 3.586200000000000045e+02 3.586100000000000136e+02 3.585600000000000023e+02 3.585600000000000023e+02 3.585500000000000114e+02 3.585099999999999909e+02 3.585099999999999909e+02 3.584599999999999795e+02 3.584499999999999886e+02 3.584300000000000068e+02 3.584100000000000250e+02 3.583999999999999773e+02 3.583799999999999955e+02 3.583700000000000045e+02 3.583600000000000136e+02 3.583500000000000227e+02 3.583399999999999750e+02 3.583299999999999841e+02 3.583199999999999932e+02 3.583100000000000023e+02 3.583100000000000023e+02 3.583000000000000114e+02 3.583000000000000114e+02 3.582200000000000273e+02 3.581999999999999886e+02 3.581899999999999977e+02 3.581800000000000068e+02 3.581800000000000068e+02 3.581800000000000068e+02 3.581800000000000068e+02 3.581899999999999977e+02 3.581999999999999886e+02 3.581999999999999886e+02 3.582099999999999795e+02 3.582300000000000182e+02
3.576200000000000045e+02 3.576600000000000250e+02 3.576899999999999977e+02 3.577400000000000091e+02 3.578000000000000114e+02 3.578299999999999841e+02 3.578700000000000045e+02 3.579499999999999886e+02 3.579800000000000182e+02 3.580199999999999818e+02 3.580799999999999841e+02 3.581100000000000136e+02 3.580899999999999750e+02 3.580699999999999932e+02 3.580500000000000114e+02 3.580199999999999818e+02 3.580000000000000000e+02 3.579800000000000182e+02 3.579700000000000273e+02 3.579700000000000273e+02 3.579599999999999795e+02 3.579700000000000273e+02 3.579599999999999795e+02 3.579700000000000273e+02 3.579800000000000182e+02 3.580099999999999909e+02 3.580000000000000000e+02 3.580400000000000205e+02 3.580799999999999841e+02 3.581100000000000136e+02 3.581299999999999955e+02 3.581800000000000068e+02 3.582200000000000273e+02 3.582699999999999818e+02 3.583000000000000114e+02 3.583299999999999841e+02 3.583299999999999841e+02 3.583600000000000136e+02 3.583500000000000227e+02 3.583399999999999750e+02 3.583600000000000136e+02 3.583700000000000045e+02 3.583799999999999955e+02 3.583999999999999773e+02 3.583899999999999864e+02 3.583999999999999773e+02 3.584100000000000250e+02 3.584100000000000250e+02 3.584599999999999795e+02 3.584499999999999886e+02 3.584700000000000273e+02 3.584700000000000273e+02 3.585000000000000000e+02 3.584599999999999795e+02 3.584800000000000182e+02 3.584800000000000182e+02 3.585099999999999909e+02 3.585400000000000205e+02 3.585500000000000114e+02 3.585600000000000023e+02 3.585600000000000023e+02 3.586000000000000227e+02 3.586200000000000045e+02 3.586499999999999773e+02 3.586800000000000068e+02 3.586999999999999886e+02 3.586899999999999977e+02 3.586899999999999977e+02 3.586499999999999773e+02 3.586299999999999955e+02 3.586200000000000045e+02 3.585799999999999841e+02 3.585799999999999841e+02 3.586100000000000136e+02 3.585799999999999841e+02 3.585799999999999841e+02 3.586100000000000136e+02 3.586100000000000136e+02 3.586399999999999864e+02 3.586399999999999864e+02 3.586399999999999864e+02 3.586399999999999864e+02 3.586100000000000136e+02 3.585899999999999750e+02 3.585600000000000023e+02 3.585400000000000205e+02 3.585199999999999818e+02 3.585000000000000000e+02 3.585199999999999818e+02 3.584900000000000091e+02 3.584599999999999795e+02 3.584499999999999886e+02 3.583999999999999773e+02 3.583999999999999773e+02 3.583700000000000045e+02 3.583600000000000136e+02 3.583600000000000136e+02 3.583399999999999750e+02 3.583199999999999932e+02 3.583100000000000023e+02 3.583100000000000023e+02 3.583000000000000114e+02 3.582900000000000205e+02 3.582699999999999818e+02 3.582900000000000205e+02 3.582599999999999909e+02 3.581800000000000068e+02 3.581700000000000159e+02 3.581700000000000159e+02 3.581600000000000250e+02 3.581499999999999773e+02 3.581499999999999773e+02 3.581499999999999773e+02 3.581600000000000250e+02 3.581700000000000159e+02 3.581700000000000159e+02 3.581700000000000159e+02 3.581899999999999977e+02
3.575899999999999750e+02 3.576399999999999864e+02 3.576800000000000068e+02 3.577200000000000273e+02 3.577900000000000205e+02 3.578299999999999841e+02 3.578700000000000045e+02 3.578999999999999773e+02 3.579700000000000273e+02 3.580199999999999818e+02 3.580500000000000114e+02 3.580699999999999932e+02 3.581000000000000227e+02 3.580799999999999841e+02 3.580699999999999932e+02 3.580299999999999727e+02 3.580099999999999909e+02 3.580000000000000000e+02 3.579900000000000091e+02 3.579800000000000182e+02 3.579700000000000273e+02 3.579599999999999795e+02 3.579700000000000273e+02 3.579800000000000182e+02 3.579700000000000273e+02 3.579700000000000273e+02 3.580099999999999909e+02 3.580400000000000205e+02 3.580799999999999841e+02 3.580799999999999841e+02 3.581399999999999864e+02 3.581600000000000250e+02 3.581999999999999886e+02 3.582699999999999818e+02 3.583100000000000023e+02 3.583299999999999841e+02 3.583100000000000023e+02 3.583299999999999841e+02 3.583399999999999750e+02 3.583500000000000227e+02 3.583700000000000045e+02 3.583500000000000227e+02 3.583799999999999955e+02 3.583999999999999773e+02 3.583999999999999773e+02 3.583999999999999773e+02 3.584200000000000159e+02 3.584200000000000159e+02 3.584499999999999886e+02 3.584800000000000182e+02 3.584700000000000273e+02 3.584599999999999795e+02 3.584700000000000273e+02 3.584599999999999795e+02 3.584700000000000273e+02 3.584700000000000273e+02 3.585099999999999909e+02 3.585299999999999727e+02 3.585099999999999909e+02 3.585400000000000205e+02 3.585600000000000023e+02 3.585799999999999841e+02 3.585899999999999750e+02 3.586200000000000045e+02 3.586499999999999773e+02 3.586700000000000159e+02 3.586899999999999977e+02 3.586399999999999864e+02 3.586399999999999864e+02 3.586000000000000227e+02 3.585799999999999841e+02 3.585600000000000023e+02 3.585400000000000205e+02 3.585500000000000114e+02 3.585699999999999932e+02 3.585500000000000114e+02 3.585600000000000023e+02 3.585899999999999750e+02 3.586000000000000227e+02 3.586299999999999955e+02 3.586299999999999955e+02 3.586100000000000136e+02 3.586100000000000136e+02 3.585799999999999841e+02 3.585500000000000114e+02 3.585299999999999727e+02 3.585299999999999727e+02 3.585099999999999909e+02 3.584900000000000091e+02 3.584300000000000068e+02 3.584100000000000250e+02 3.583999999999999773e+02 3.583799999999999955e+02 3.583899999999999864e+02 3.583600000000000136e+02 3.583600000000000136e+02 3.583299999999999841e+02 3.583100000000000023e+02 3.583000000000000114e+02 3.582799999999999727e+02 3.582900000000000205e+02 3.582900000000000205e+02 3.582599999999999909e+02 3.582500000000000000e+02 3.582599999999999909e+02 3.582300000000000182e+02 3.581600000000000250e+02 3.581399999999999864e+02 3.581399999999999864e+02 3.581299999999999955e+02 3.581200000000000045e+02 3.581200000000000045e+02 3.581200000000000045e+02 3.581200000000000045e+02 3.581299999999999955e+02 3.581299999999999955e+02 3.581399999999999864e+02 3.581499999999999773e+02
3.576100000000000136e+02 3.576499999999999773e+02 3.576899999999999977e+02 3.577500000000000000e+02 3.578000000000000114e+02 3.578199999999999932e+02 3.578700000000000045e+02 3.578999999999999773e+02 3.579599999999999795e+02 3.580199999999999818e+02 3.580500000000000114e+02 3.580600000000000023e+02 3.580699999999999932e+02 3.580600000000000023e+02 3.580400000000000205e+02 3.580000000000000000e+02 3.580099999999999909e+02 3.579700000000000273e+02 3.579599999999999795e+02 3.579300000000000068e+02 3.579300000000000068e+02 3.579200000000000159e+02 3.579200000000000159e+02 3.579300000000000068e+02 3.579599999999999795e+02 3.579700000000000273e+02 3.579700000000000273e+02 3.580299999999999727e+02 3.580299999999999727e+02 3.580899999999999750e+02 3.581000000000000227e+02 3.581399999999999864e+02 3.581800000000000068e+02 3.582200000000000273e+02 3.582599999999999909e+02 3.582900000000000205e+02 3.583000000000000114e+02 3.582900000000000205e+02 3.583100000000000023e+02 3.583399999999999750e+02 3.583500000000000227e+02 3.583399999999999750e+02 3.583700000000000045e+02 3.583700000000000045e+02 3.583799999999999955e+02 3.583999999999999773e+02 3.583999999999999773e+02 3.584100000000000250e+02 3.584499999999999886e+02 3.584399999999999977e+02 3.584599999999999795e+02 3.584599999999999795e+02 3.584399999999999977e+02 3.584599999999999795e+02 3.584700000000000273e+02 3.584900000000000091e+02 3.584700000000000273e+02 3.585099999999999909e+02 3.585299999999999727e+02 3.585500000000000114e+02 3.585600000000000023e+02 3.585600000000000023e+02 3.585899999999999750e+02 3.586100000000000136e+02 3.586200000000000045e+02 3.586200000000000045e+02 3.586399999999999864e+02 3.586200000000000045e+02 3.585899999999999750e+02 3.585699999999999932e+02 3.585600000000000023e+02 3.585600000000000023e+02 3.585600000000000023e+02 3.585299999999999727e+02 3.585400000000000205e+02 3.585600000000000023e+02 3.585699999999999932e+02 3.586000000000000227e+02 3.586100000000000136e+02 3.586200000000000045e+02 3.586000000000000227e+02 3.586100000000000136e+02 3.586000000000000227e+02 3.585899999999999750e+02 3.585500000000000114e+02 3.585299999999999727e+02 3.585299999999999727e+02 3.585199999999999818e+02 3.585000000000000000e+02 3.584599999999999795e+02 3.584499999999999886e+02 3.584200000000000159e+02 3.583999999999999773e+02 3.583700000000000045e+02 3.583500000000000227e+02 3.583399999999999750e+02 3.583199999999999932e+02 3.583199999999999932e+02 3.582900000000000205e+02 3.583000000000000114e+02 3.582900000000000205e+02 3.582799999999999727e+02 3.582699999999999818e+02 3.582699999999999818e+02 3.582500000000000000e+02 3.582300000000000182e+02 3.581299999999999955e+02 3.581200000000000045e+02 3.581100000000000136e+02 3.581000000000000227e+02 3.581000000000000227e+02 3.580899999999999750e+02 3.580899999999999750e+02 3.581000000000000227e+02 3.581000000000000227e+02 3.581000000000000227e+02 3.581000000000000227e+02 3.581100000000000136e+02
3.576200000000000045e+02 3.576499999999999773e+02 3.576999999999999886e+02 3.577400000000000091e+02 3.577900000000000205e+02 3.578299999999999841e+02 3.578799999999999955e+02 3.579399999999999977e+02 3.579900000000000091e+02 3.580199999999999818e+02 3.580600000000000023e+02 3.580699999999999932e+02 3.580799999999999841e+02 3.580600000000000023e+02 3.580400000000000205e+02 3.580000000000000000e+02 3.579499999999999886e+02 3.579700000000000273e+02 3.579599999999999795e+02 3.579300000000000068e+02 3.579300000000000068e+02 3.579399999999999977e+02 3.579200000000000159e+02 3.579200000000000159e+02 3.579599999999999795e+02 3.579499999999999886e+02 3.579800000000000182e+02 3.580099999999999909e+02 3.580400000000000205e+02 3.580500000000000114e+02 3.580699999999999932e+02 3.581000000000000227e+02 3.581499999999999773e+02 3.581800000000000068e+02 3.582300000000000182e+02 3.582699999999999818e+02 3.582699999999999818e+02 3.582799999999999727e+02 3.582900000000000205e+02 3.583299999999999841e+02 3.583500000000000227e+02 3.583799999999999955e+02 3.583700000000000045e+02 3.583799999999999955e+02 3.583899999999999864e+02 3.584100000000000250e+02 3.583999999999999773e+02 3.583999999999999773e+02 3.584399999999999977e+02 3.584399999999999977e+02 3.584599999999999795e+02 3.584200000000000159e+02 3.584200000000000159e+02 3.584300000000000068e+02 3.584399999999999977e+02 3.584700000000000273e+02 3.584700000000000273e+02 3.584900000000000091e+02 3.585199999999999818e+02 3.585099999999999909e+02 3.585500000000000114e+02 3.585699999999999932e+02 3.585699999999999932e+02 3.586000000000000227e+02 3.586200000000000045e+02 3.586100000000000136e+02 3.586299999999999955e+02 3.586000000000000227e+02 3.585699999999999932e+02 3.585400000000000205e+02 3.585299999999999727e+02 3.585299999999999727e+02 3.585199999999999818e+02 3.585199999999999818e+02 3.585099999999999909e+02 3.585299999999999727e+02 3.585199999999999818e+02 3.585400000000000205e+02 3.585600000000000023e+02 3.585600000000000023e+02 3.585699999999999932e+02 3.585799999999999841e+02 3.585500000000000114e+02 3.585600000000000023e+02 3.585400000000000205e+02 3.585299999999999727e+02 3.585199999999999818e+02 3.585199999999999818e+02 3.584800000000000182e+02 3.584499999999999886e+02 3.584499999999999886e+02 3.584200000000000159e+02 3.583700000000000045e+02 3.583500000000000227e+02 3.583199999999999932e+02 3.583000000000000114e+02 3.582900000000000205e+02 3.582799999999999727e+02 3.582699999999999818e+02 3.582699999999999818e+02 3.582799999999999727e+02 3.582599999999999909e+02 3.582300000000000182e+02 3.582400000000000091e+02 3.582200000000000273e+02 3.581899999999999977e+02 3.581100000000000136e+02 3.581000000000000227e+02 3.580899999999999750e+02 3.580799999999999841e+02 3.580699999999999932e+02 3.580699999999999932e+02 3.580699999999999932e+02 3.580699999999999932e+02 3.580799999999999841e+02 3.580799999999999841e+02 3.580799999999999841e+02 3.580899999999999750e+02
3.576499999999999773e+02 3.576600000000000250e+02 3.577200000000000273e+02 3.577599999999999909e+02 3.578000000000000114e+02 3.578600000000000136e+02 3.579100000000000250e+02 3.579499999999999886e+02 3.579800000000000182e+02 3.580199999999999818e+02 3.580699999999999932e+02 3.580899999999999750e+02 3.580899999999999750e+02 3.580899999999999750e+02 3.580400000000000205e+02 3.580199999999999818e+02 3.580000000000000000e+02 3.580000000000000000e+02 3.579700000000000273e+02 3.579800000000000182e+02 3.579499999999999886e+02 3.579599999999999795e+02 3.579300000000000068e+02 3.579200000000000159e+02 3.579399999999999977e+02 3.579700000000000273e+02 3.579599999999999795e+02 3.579900000000000091e+02 3.580199999999999818e+02 3.580600000000000023e+02 3.580799999999999841e+02 3.581100000000000136e+02 3.581600000000000250e+02 3.582099999999999795e+02 3.582400000000000091e+02 3.582500000000000000e+02 3.582799999999999727e+02 3.582900000000000205e+02 3.583000000000000114e+02 3.583199999999999932e+02 3.583700000000000045e+02 3.583600000000000136e+02 3.583799999999999955e+02 3.583799999999999955e+02 3.583899999999999864e+02 3.583899999999999864e+02 3.583999999999999773e+02 3.584300000000000068e+02 3.584200000000000159e+02 3.584499999999999886e+02 3.584499999999999886e+02 3.584399999999999977e+02 3.584499999999999886e+02 3.584499999999999886e+02 3.584399999999999977e+02 3.584499999999999886e+02 3.584800000000000182e+02 3.585000000000000000e+02 3.585099999999999909e+02 3.585199999999999818e+02 3.585699999999999932e+02 3.585500000000000114e+02 3.585600000000000023e+02 3.585799999999999841e+02 3.585899999999999750e+02 3.585899999999999750e+02 3.585799999999999841e+02 3.585799999999999841e+02 3.585199999999999818e+02 3.585199999999999818e+02 3.585299999999999727e+02 3.585099999999999909e+02 3.584800000000000182e+02 3.584900000000000091e+02 3.585000000000000000e+02 3.585000000000000000e+02 3.585099999999999909e+02 3.585299999999999727e+02 3.585299999999999727e+02 3.585500000000000114e+02 3.585899999999999750e+02 3.585500000000000114e+02 3.585299999999999727e+02 3.585299999999999727e+02 3.585099999999999909e+02 3.585099999999999909e+02 3.585099999999999909e+02 3.584800000000000182e+02 3.584800000000000182e+02 3.584599999999999795e+02 3.584300000000000068e+02 3.583999999999999773e+02 3.583899999999999864e+02 3.583600000000000136e+02 3.583199999999999932e+02 3.582900000000000205e+02 3.582799999999999727e+02 3.582500000000000000e+02 3.582400000000000091e+02 3.582599999999999909e+02 3.582599999999999909e+02 3.582500000000000000e+02 3.582400000000000091e+02 3.582300000000000182e+02 3.581999999999999886e+02 3.581800000000000068e+02 3.581000000000000227e+02 3.580899999999999750e+02 3.580799999999999841e+02 3.580699999999999932e+02 3.580600000000000023e+02 3.580600000000000023e+02 3.580500000000000114e+02 3.580600000000000023e+02 3.580600000000000023e+02 3.580699999999999932e+02 3.580699999999999932e+02 3.580699999999999932e+02
3.576399999999999864e+02 3.576999999999999886e+02 3.577300000000000182e+02 3.577699999999999818e+02 3.578100000000000023e+02 3.578799999999999955e+02 3.578899999999999864e+02 3.579499999999999886e+02 3.580000000000000000e+02 3.580500000000000114e+02 3.580699999999999932e+02 3.581100000000000136e+02 3.581100000000000136e+02 3.580799999999999841e+02 3.580400000000000205e+02 3.579900000000000091e+02 3.580000000000000000e+02 3.579900000000000091e+02 3.579900000000000091e+02 3.579499999999999886e+02 3.579200000000000159e+02 3.579399999999999977e+02 3.579399999999999977e+02 3.579399999999999977e+02 3.579399999999999977e+02 3.579499999999999886e+02 3.579599999999999795e+02 3.579900000000000091e+02 3.580000000000000000e+02 3.580500000000000114e+02 3.580699999999999932e+02 3.581299999999999955e+02 3.581499999999999773e+02 3.581899999999999977e+02 3.582300000000000182e+02 3.582300000000000182e+02 3.582599999999999909e+02 3.582900000000000205e+02 3.582900000000000205e+02 3.583199999999999932e+02 3.583299999999999841e+02 3.583500000000000227e+02 3.583799999999999955e+02 3.583899999999999864e+02 3.583999999999999773e+02 3.584100000000000250e+02 3.584300000000000068e+02 3.583999999999999773e+02 3.584300000000000068e+02 3.584399999999999977e+02 3.584499999999999886e+02 3.584700000000000273e+02 3.584399999999999977e+02 3.584300000000000068e+02 3.584499999999999886e+02 3.584499999999999886e+02 3.584700000000000273e+02 3.584900000000000091e+02 3.584800000000000182e+02 3.585199999999999818e+02 3.585400000000000205e+02 3.585400000000000205e+02 3.585400000000000205e+02 3.585500000000000114e+02 3.585899999999999750e+02 3.585899999999999750e+02 3.585899999999999750e+02 3.585600000000000023e+02 3.585400000000000205e+02 3.585299999999999727e+02 3.584900000000000091e+02 3.585000000000000000e+02 3.584900000000000091e+02 3.584900000000000091e+02 3.585000000000000000e+02 3.585000000000000000e+02 3.585199999999999818e+02 3.585299999999999727e+02 3.585299999999999727e+02 3.585600000000000023e+02 3.585699999999999932e+02 3.585600000000000023e+02 3.585400000000000205e+02 3.585400000000000205e+02 3.585400000000000205e+02 3.585299999999999727e+02 3.585299999999999727e+02 3.585000000000000000e+02 3.585000000000000000e+02 3.584800000000000182e+02 3.584399999999999977e+02 3.584300000000000068e+02 3.583799999999999955e+02 3.583700000000000045e+02 3.583399999999999750e+02 3.582799999999999727e+02 3.582699999999999818e+02 3.582799999999999727e+02 3.582799999999999727e+02 3.582900000000000205e+02 3.582699999999999818e+02 3.582699999999999818e+02 3.582599999999999909e+02 3.582400000000000091e+02 3.582200000000000273e+02 3.581800000000000068e+02 3.581000000000000227e+02 3.580799999999999841e+02 3.580699999999999932e+02 3.580500000000000114e+02 3.580400000000000205e+02 3.580400000000000205e+02 3.580400000000000205e+02 3.580400000000000205e+02 3.580500000000000114e+02 3.580500000000000114e+02 3.580600000000000023e+02 3.580600000000000023e+02
3.576499999999999773e+02 3.576800000000000068e+02 3.576999999999999886e+02 3.577400000000000091e+02 3.578100000000000023e+02 3.578399999999999750e+02 3.578999999999999773e+02 3.579200000000000159e+02 3.579900000000000091e+02 3.580299999999999727e+02 3.580500000000000114e+02 3.580799999999999841e+02 3.581000000000000227e+02 3.580799999999999841e+02 3.580199999999999818e+02 3.580099999999999909e+02 3.579900000000000091e+02 3.580000000000000000e+02 3.579599999999999795e+02 3.579300000000000068e+02 3.579200000000000159e+02 3.579300000000000068e+02 3.579200000000000159e+02 3.579200000000000159e+02 3.579300000000000068e+02 3.579399999999999977e+02 3.579499999999999886e+02 3.579599999999999795e+02 3.579800000000000182e+02 3.580299999999999727e+02 3.580500000000000114e+02 3.581100000000000136e+02 3.581299999999999955e+02 3.581499999999999773e+02 3.581999999999999886e+02 3.582300000000000182e+02 3.582400000000000091e+02 3.582699999999999818e+02 3.582699999999999818e+02 3.582900000000000205e+02 3.582900000000000205e+02 3.583500000000000227e+02 3.583600000000000136e+02 3.583500000000000227e+02 3.583799999999999955e+02 3.583700000000000045e+02 3.583899999999999864e+02 3.583899999999999864e+02 3.584300000000000068e+02 3.584300000000000068e+02 3.584399999999999977e+02 3.584100000000000250e+02 3.583999999999999773e+02 3.583999999999999773e+02 3.584200000000000159e+02 3.584200000000000159e+02 3.584399999999999977e+02 3.584599999999999795e+02 3.584599999999999795e+02 3.584800000000000182e+02 3.585000000000000000e+02 3.585199999999999818e+02 3.585199999999999818e+02 3.585299999999999727e+02 3.585400000000000205e+02 3.585600000000000023e+02 3.585500000000000114e+02 3.585299999999999727e+02 3.585000000000000000e+02 3.584900000000000091e+02 3.584700000000000273e+02 3.584399999999999977e+02 3.584399999999999977e+02 3.584399999999999977e+02 3.584499999999999886e+02 3.584499999999999886e+02 3.584800000000000182e+02 3.585000000000000000e+02 3.585099999999999909e+02 3.585199999999999818e+02 3.585199999999999818e+02 3.585299999999999727e+02 3.585000000000000000e+02 3.585299999999999727e+02 3.585199999999999818e+02 3.585299999999999727e+02 3.585199999999999818e+02 3.585199999999999818e+02 3.585199999999999818e+02 3.585000000000000000e+02 3.584499999999999886e+02 3.584200000000000159e+02 3.583999999999999773e+02 3.583799999999999955e+02 3.583299999999999841e+02 3.583100000000000023e+02 3.582799999999999727e+02 3.582699999999999818e+02 3.582699999999999818e+02 3.582799999999999727e+02 3.582599999999999909e+02 3.582500000000000000e+02 3.582400000000000091e+02 3.582300000000000182e+02 3.581999999999999886e+02 3.582099999999999795e+02 3.581000000000000227e+02 3.580799999999999841e+02 3.580600000000000023e+02 3.580400000000000205e+02 3.580199999999999818e+02 3.580099999999999909e+02 3.580199999999999818e+02 3.580299999999999727e+02 3.580299999999999727e+02 3.580400000000000205e+02 3.580400000000000205e+02 3.580400000000000205e+02
3.576299999999999955e+02 3.576800000000000068e+02 3.576999999999999886e+02 3.577400000000000091e+02 3.578000000000000114e+02 3.578100000000000023e+02 3.578799999999999955e+02 3.579200000000000159e+02 3.579700000000000273e+02 3.580000000000000000e+02 3.580299999999999727e+02 3.580699999999999932e+02 3.580699999999999932e+02 3.580600000000000023e+02 3.580400000000000205e+02 3.579900000000000091e+02 3.579499999999999886e+02 3.579499999999999886e+02 3.579499999999999886e+02 3.579300000000000068e+02 3.578999999999999773e+02 3.578999999999999773e+02 3.578999999999999773e+02 3.578899999999999864e+02 3.578999999999999773e+02 3.578899999999999864e+02 3.578999999999999773e+02 3.579499999999999886e+02 3.579700000000000273e+02 3.580199999999999818e+02 3.580099999999999909e+02 3.580699999999999932e+02 3.580899999999999750e+02 3.581399999999999864e+02 3.581700000000000159e+02 3.581899999999999977e+02 3.581999999999999886e+02 3.582400000000000091e+02 3.582599999999999909e+02 3.582599999999999909e+02 3.583000000000000114e+02 3.583100000000000023e+02 3.583199999999999932e+02 3.583299999999999841e+02 3.583600000000000136e+02 3.583799999999999955e+02 3.583700000000000045e+02 3.583899999999999864e+02 3.583899999999999864e+02 3.583799999999999955e+02 3.583799999999999955e+02 3.583700000000000045e+02 3.583799999999999955e+02 3.583899999999999864e+02 3.583999999999999773e+02 3.584100000000000250e+02 3.584200000000000159e+02 3.584300000000000068e+02 3.584399999999999977e+02 3.584599999999999795e+02 3.584599999999999795e+02 3.584499999999999886e+02 3.584900000000000091e+02 3.584800000000000182e+02 3.584800000000000182e+02 3.584900000000000091e+02 3.584800000000000182e+02 3.584900000000000091e+02 3.584900000000000091e+02 3.584300000000000068e+02 3.584200000000000159e+02 3.583999999999999773e+02 3.583999999999999773e+02 3.584100000000000250e+02 3.584100000000000250e+02 3.584100000000000250e+02 3.584399999999999977e+02 3.584700000000000273e+02 3.584599999999999795e+02 3.584900000000000091e+02 3.585099999999999909e+02 3.584900000000000091e+02 3.585000000000000000e+02 3.585099999999999909e+02 3.584800000000000182e+02 3.584900000000000091e+02 3.585199999999999818e+02 3.585199999999999818e+02 3.584599999999999795e+02 3.584599999999999795e+02 3.584300000000000068e+02 3.583999999999999773e+02 3.583600000000000136e+02 3.583600000000000136e+02 3.583000000000000114e+02 3.582699999999999818e+02 3.582699999999999818e+02 3.582300000000000182e+02 3.582500000000000000e+02 3.582599999999999909e+02 3.582500000000000000e+02 3.582300000000000182e+02 3.582099999999999795e+02 3.581700000000000159e+02 3.581700000000000159e+02 3.581600000000000250e+02 3.580799999999999841e+02 3.580600000000000023e+02 3.580400000000000205e+02 3.580199999999999818e+02 3.580000000000000000e+02 3.579900000000000091e+02 3.580000000000000000e+02 3.580099999999999909e+02 3.580199999999999818e+02 3.580199999999999818e+02 3.580199999999999818e+02 3.580199999999999818e+02
3.575799999999999841e+02 3.576299999999999955e+02 3.576800000000000068e+02 3.577300000000000182e+02 3.577599999999999909e+02 3.578100000000000023e+02 3.578500000000000227e+02 3.578899999999999864e+02 3.579200000000000159e+02 3.579700000000000273e+02 3.580099999999999909e+02 3.580099999999999909e+02 3.580400000000000205e+02 3.580000000000000000e+02 3.579800000000000182e+02 3.579700000000000273e+02 3.579399999999999977e+02 3.579399999999999977e+02 3.578899999999999864e+02 3.578999999999999773e+02 3.578899999999999864e+02 3.578799999999999955e+02 3.578999999999999773e+02 3.578600000000000136e+02 3.578500000000000227e+02 3.578399999999999750e+02 3.578899999999999864e+02 3.579200000000000159e+02 3.579499999999999886e+02 3.580000000000000000e+02 3.580099999999999909e+02 3.580400000000000205e+02 3.580799999999999841e+02 3.581200000000000045e+02 3.581499999999999773e+02 3.581700000000000159e+02 3.581800000000000068e+02 3.581999999999999886e+02 3.582099999999999795e+02 3.582400000000000091e+02 3.582799999999999727e+02 3.582799999999999727e+02 3.582799999999999727e+02 3.583299999999999841e+02 3.583100000000000023e+02 3.583299999999999841e+02 3.583500000000000227e+02 3.583399999999999750e+02 3.583700000000000045e+02 3.583600000000000136e+02 3.583700000000000045e+02 3.583799999999999955e+02 3.583600000000000136e+02 3.583600000000000136e+02 3.583700000000000045e+02 3.583899999999999864e+02 3.583999999999999773e+02 3.584100000000000250e+02 3.583999999999999773e+02 3.584300000000000068e+02 3.584300000000000068e+02 3.584300000000000068e+02 3.584599999999999795e+02 3.584900000000000091e+02 3.584599999999999795e+02 3.584800000000000182e+02 3.584700000000000273e+02 3.584599999999999795e+02 3.584200000000000159e+02 3.584200000000000159e+02 3.583799999999999955e+02 3.583600000000000136e+02 3.583600000000000136e+02 3.583700000000000045e+02 3.583799999999999955e+02 3.583799999999999955e+02 3.584200000000000159e+02 3.584399999999999977e+02 3.584300000000000068e+02 3.584499999999999886e+02 3.584599999999999795e+02 3.584300000000000068e+02 3.584499999999999886e+02 3.584399999999999977e+02 3.584499999999999886e+02 3.584599999999999795e+02 3.584599999999999795e+02 3.584499999999999886e+02 3.584399999999999977e+02 3.584300000000000068e+02 3.584200000000000159e+02 3.584200000000000159e+02 3.583399999999999750e+02 3.583500000000000227e+02 3.583000000000000114e+02 3.582599999999999909e+02 3.582400000000000091e+02 3.581999999999999886e+02 3.582200000000000273e+02 3.582300000000000182e+02 3.582400000000000091e+02 3.582099999999999795e+02 3.581899999999999977e+02 3.581600000000000250e+02 3.581499999999999773e+02 3.581499999999999773e+02 3.580400000000000205e+02 3.580400000000000205e+02 3.580199999999999818e+02 3.579900000000000091e+02 3.579800000000000182e+02 3.579700000000000273e+02 3.579700000000000273e+02 3.579800000000000182e+02 3.579800000000000182e+02 3.579900000000000091e+02 3.579900000000000091e+02 3.579800000000000182e+02
3.576000000000000227e+02 3.576399999999999864e+02 3.576600000000000250e+02 3.577099999999999795e+02 3.577400000000000091e+02 3.577599999999999909e+02 3.578100000000000023e+02 3.578799999999999955e+02 3.579100000000000250e+02 3.579499999999999886e+02 3.580000000000000000e+02 3.580000000000000000e+02 3.580000000000000000e+02 3.579700000000000273e+02 3.579499999999999886e+02 3.579399999999999977e+02 3.579100000000000250e+02 3.579200000000000159e+02 3.578999999999999773e+02 3.578999999999999773e+02 3.578700000000000045e+02 3.578500000000000227e+02 3.578399999999999750e+02 3.578299999999999841e+02 3.578299999999999841e+02 3.578500000000000227e+02 3.578799999999999955e+02 3.578899999999999864e+02 3.579100000000000250e+02 3.579300000000000068e+02 3.579700000000000273e+02 3.579900000000000091e+02 3.580299999999999727e+02 3.581000000000000227e+02 3.581200000000000045e+02 3.581600000000000250e+02 3.581600000000000250e+02 3.581800000000000068e+02 3.581899999999999977e+02 3.582099999999999795e+02 3.582400000000000091e+02 3.582500000000000000e+02 3.582799999999999727e+02 3.582900000000000205e+02 3.583199999999999932e+02 3.583100000000000023e+02 3.583100000000000023e+02 3.583199999999999932e+02 3.583299999999999841e+02 3.583500000000000227e+02 3.583299999999999841e+02 3.583299999999999841e+02 3.583199999999999932e+02 3.583299999999999841e+02 3.583399999999999750e+02 3.583299999999999841e+02 3.583500000000000227e+02 3.583500000000000227e+02 3.583799999999999955e+02 3.583899999999999864e+02 3.583799999999999955e+02 3.583999999999999773e+02 3.584200000000000159e+02 3.584200000000000159e+02 3.584200000000000159e+02 3.584200000000000159e+02 3.584399999999999977e+02 3.583999999999999773e+02 3.584100000000000250e+02 3.583899999999999864e+02 3.583500000000000227e+02 3.583299999999999841e+02 3.583199999999999932e+02 3.583299999999999841e+02 3.583399999999999750e+02 3.583500000000000227e+02 3.583500000000000227e+02 3.583899999999999864e+02 3.583999999999999773e+02 3.584100000000000250e+02 3.584100000000000250e+02 3.584100000000000250e+02 3.583799999999999955e+02 3.583899999999999864e+02 3.583700000000000045e+02 3.583899999999999864e+02 3.583999999999999773e+02 3.584100000000000250e+02 3.583999999999999773e+02 3.584100000000000250e+02 3.583899999999999864e+02 3.583500000000000227e+02 3.583299999999999841e+02 3.582900000000000205e+02 3.582900000000000205e+02 3.582599999999999909e+02 3.582200000000000273e+02 3.581899999999999977e+02 3.581899999999999977e+02 3.581999999999999886e+02 3.581899999999999977e+02 3.581999999999999886e+02 3.581600000000000250e+02 3.581600000000000250e+02 3.581299999999999955e+02 3.581100000000000136e+02 3.580199999999999818e+02 3.580099999999999909e+02 3.580000000000000000e+02 3.579700000000000273e+02 3.579599999999999795e+02 3.579499999999999886e+02 3.579499999999999886e+02 3.579499999999999886e+02 3.579499999999999886e+02 3.579499999999999886e+02 3.579499999999999886e+02 3.579499999999999886e+02
3.576200000000000045e+02 3.575899999999999750e+02 3.576499999999999773e+02 3.577099999999999795e+02 3.577300000000000182e+02 3.577599999999999909e+02 3.578299999999999841e+02 3.578600000000000136e+02 3.578700000000000045e+02 3.579100000000000250e+02 3.579499999999999886e+02 3.579800000000000182e+02 3.579900000000000091e+02 3.579700000000000273e+02 3.579499999999999886e+02 3.579200000000000159e+02 3.578999999999999773e+02 3.578899999999999864e+02 3.578899999999999864e+02 3.578799999999999955e+02 3.578700000000000045e+02 3.578500000000000227e+02 3.578299999999999841e+02 3.578600000000000136e+02 3.578199999999999932e+02 3.578299999999999841e+02 3.578600000000000136e+02 3.578799999999999955e+02 3.579300000000000068e+02 3.579399999999999977e+02 3.579700000000000273e+02 3.580199999999999818e+02 3.580299999999999727e+02 3.580799999999999841e+02 3.581200000000000045e+02 3.581399999999999864e+02 3.581700000000000159e+02 3.581999999999999886e+02 3.581999999999999886e+02 3.582400000000000091e+02 3.582500000000000000e+02 3.582599999999999909e+02 3.582699999999999818e+02 3.582900000000000205e+02 3.583199999999999932e+02 3.583000000000000114e+02 3.583100000000000023e+02 3.583100000000000023e+02 3.583199999999999932e+02 3.583500000000000227e+02 3.583299999999999841e+02 3.583299999999999841e+02 3.583199999999999932e+02 3.583199999999999932e+02 3.583299999999999841e+02 3.583399999999999750e+02 3.583399999999999750e+02 3.583399999999999750e+02 3.583399999999999750e+02 3.583700000000000045e+02 3.583899999999999864e+02 3.583999999999999773e+02 3.583999999999999773e+02 3.583799999999999955e+02 3.584100000000000250e+02 3.583999999999999773e+02 3.583999999999999773e+02 3.583799999999999955e+02 3.583600000000000136e+02 3.583600000000000136e+02 3.583199999999999932e+02 3.583000000000000114e+02 3.583000000000000114e+02 3.583100000000000023e+02 3.583100000000000023e+02 3.583100000000000023e+02 3.583199999999999932e+02 3.583399999999999750e+02 3.583500000000000227e+02 3.583700000000000045e+02 3.583799999999999955e+02 3.583700000000000045e+02 3.583600000000000136e+02 3.583399999999999750e+02 3.583500000000000227e+02 3.583600000000000136e+02 3.583600000000000136e+02 3.583999999999999773e+02 3.583799999999999955e+02 3.583799999999999955e+02 3.583500000000000227e+02 3.583299999999999841e+02 3.583100000000000023e+02 3.582799999999999727e+02 3.582400000000000091e+02 3.581800000000000068e+02 3.581999999999999886e+02 3.581600000000000250e+02 3.581600000000000250e+02 3.581499999999999773e+02 3.581700000000000159e+02 3.581600000000000250e+02 3.581399999999999864e+02 3.581299999999999955e+02 3.580799999999999841e+02 3.580799999999999841e+02 3.580099999999999909e+02 3.579900000000000091e+02 3.579700000000000273e+02 3.579599999999999795e+02 3.579499999999999886e+02 3.579399999999999977e+02 3.579399999999999977e+02 3.579300000000000068e+02 3.579300000000000068e+02 3.579399999999999977e+02 3.579300000000000068e+02 3.579200000000000159e+02
3.575799999999999841e+02 3.576000000000000227e+02 3.576499999999999773e+02 3.576899999999999977e+02 3.577200000000000273e+02 3.577400000000000091e+02 3.577699999999999818e+02 3.578000000000000114e+02 3.578199999999999932e+02 3.578700000000000045e+02 3.579200000000000159e+02 3.579399999999999977e+02 3.579499999999999886e+02 3.579300000000000068e+02 3.579200000000000159e+02 3.578899999999999864e+02 3.578799999999999955e+02 3.578899999999999864e+02 3.578500000000000227e+02 3.578700000000000045e+02 3.578500000000000227e+02 3.578399999999999750e+02 3.578299999999999841e+02 3.578399999999999750e+02 3.578199999999999932e+02 3.578199999999999932e+02 3.578199999999999932e+02 3.578500000000000227e+02 3.579100000000000250e+02 3.579300000000000068e+02 3.579300000000000068e+02 3.579700000000000273e+02 3.580199999999999818e+02 3.580500000000000114e+02 3.581000000000000227e+02 3.581299999999999955e+02 3.581499999999999773e+02 3.581999999999999886e+02 3.581899999999999977e+02 3.582099999999999795e+02 3.582300000000000182e+02 3.582400000000000091e+02 3.582799999999999727e+02 3.582799999999999727e+02 3.582699999999999818e+02 3.582900000000000205e+02 3.582799999999999727e+02 3.582799999999999727e+02 3.583000000000000114e+02 3.583199999999999932e+02 3.583199999999999932e+02 3.583299999999999841e+02 3.583199999999999932e+02 3.583100000000000023e+02 3.582900000000000205e+02 3.583199999999999932e+02 3.583299999999999841e+02 3.583299999999999841e+02 3.583500000000000227e+02 3.583600000000000136e+02 3.583700000000000045e+02 3.583500000000000227e+02 3.583500000000000227e+02 3.583799999999999955e+02 3.584100000000000250e+02 3.583799999999999955e+02 3.583700000000000045e+02 3.583600000000000136e+02 3.583299999999999841e+02 3.583100000000000023e+02 3.583199999999999932e+02 3.583100000000000023e+02 3.582799999999999727e+02 3.582799999999999727e+02 3.583199999999999932e+02 3.583100000000000023e+02 3.583399999999999750e+02 3.583399999999999750e+02 3.583299999999999841e+02 3.583600000000000136e+02 3.583700000000000045e+02 3.583399999999999750e+02 3.583500000000000227e+02 3.583399999999999750e+02 3.583299999999999841e+02 3.583399999999999750e+02 3.583600000000000136e+02 3.583299999999999841e+02 3.583500000000000227e+02 3.583399999999999750e+02 3.583299999999999841e+02 3.583399999999999750e+02 3.582900000000000205e+02 3.582599999999999909e+02 3.582099999999999795e+02 3.581999999999999886e+02 3.581700000000000159e+02 3.581499999999999773e+02 3.581600000000000250e+02 3.581600000000000250e+02 3.581600000000000250e+02 3.581499999999999773e+02 3.581100000000000136e+02 3.581200000000000045e+02 3.581299999999999955e+02 3.581000000000000227e+02 3.580000000000000000e+02 3.579700000000000273e+02 3.579599999999999795e+02 3.579399999999999977e+02 3.579399999999999977e+02 3.579300000000000068e+02 3.579300000000000068e+02 3.579200000000000159e+02 3.579200000000000159e+02 3.579200000000000159e+02 3.579200000000000159e+02 3.579100000000000250e+02
3.575600000000000023e+02 3.575799999999999841e+02 3.576200000000000045e+02 3.576700000000000159e+02 3.576899999999999977e+02 3.577099999999999795e+02 3.577500000000000000e+02 3.577799999999999727e+02 3.578199999999999932e+02 3.578600000000000136e+02 3.578999999999999773e+02 3.579200000000000159e+02 3.579100000000000250e+02 3.579100000000000250e+02 3.579100000000000250e+02 3.578600000000000136e+02 3.578500000000000227e+02 3.578700000000000045e+02 3.578399999999999750e+02 3.578600000000000136e+02 3.578399999999999750e+02 3.578000000000000114e+02 3.577900000000000205e+02 3.578000000000000114e+02 3.577900000000000205e+02 3.578000000000000114e+02 3.578100000000000023e+02 3.578199999999999932e+02 3.578700000000000045e+02 3.579100000000000250e+02 3.578999999999999773e+02 3.579399999999999977e+02 3.580000000000000000e+02 3.580299999999999727e+02 3.580699999999999932e+02 3.581299999999999955e+02 3.581399999999999864e+02 3.581499999999999773e+02 3.581700000000000159e+02 3.581999999999999886e+02 3.582300000000000182e+02 3.582500000000000000e+02 3.582699999999999818e+02 3.582599999999999909e+02 3.582599999999999909e+02 3.582599999999999909e+02 3.582599999999999909e+02 3.582699999999999818e+02 3.582699999999999818e+02 3.582900000000000205e+02 3.582900000000000205e+02 3.582900000000000205e+02 3.582699999999999818e+02 3.582400000000000091e+02 3.582500000000000000e+02 3.582799999999999727e+02 3.582799999999999727e+02 3.582900000000000205e+02 3.583199999999999932e+02 3.582900000000000205e+02 3.583199999999999932e+02 3.583199999999999932e+02 3.583299999999999841e+02 3.583199999999999932e+02 3.583399999999999750e+02 3.583600000000000136e+02 3.583600000000000136e+02 3.583399999999999750e+02 3.583199999999999932e+02 3.582699999999999818e+02 3.582699999999999818e+02 3.582599999999999909e+02 3.582500000000000000e+02 3.582500000000000000e+02 3.582599999999999909e+02 3.582799999999999727e+02 3.582900000000000205e+02 3.583000000000000114e+02 3.583299999999999841e+02 3.583299999999999841e+02 3.583299999999999841e+02 3.583000000000000114e+02 3.582799999999999727e+02 3.583199999999999932e+02 3.582799999999999727e+02 3.582799999999999727e+02 3.583199999999999932e+02 3.583199999999999932e+02 3.583199999999999932e+02 3.583000000000000114e+02 3.583000000000000114e+02 3.582900000000000205e+02 3.582699999999999818e+02 3.582500000000000000e+02 3.582200000000000273e+02 3.581800000000000068e+02 3.581700000000000159e+02 3.581499999999999773e+02 3.581399999999999864e+02 3.581499999999999773e+02 3.581399999999999864e+02 3.581200000000000045e+02 3.581100000000000136e+02 3.581100000000000136e+02 3.581100000000000136e+02 3.580699999999999932e+02 3.579800000000000182e+02 3.579599999999999795e+02 3.579499999999999886e+02 3.579399999999999977e+02 3.579200000000000159e+02 3.579200000000000159e+02 3.579100000000000250e+02 3.579100000000000250e+02 3.579100000000000250e+02 3.579100000000000250e+02 3.579100000000000250e+02 3.578999999999999773e+02
3.575299999999999727e+02 3.575699999999999932e+02 3.576000000000000227e+02 3.576399999999999864e+02 3.576499999999999773e+02 3.576700000000000159e+02 3.576999999999999886e+02 3.577500000000000000e+02 3.577900000000000205e+02 3.578199999999999932e+02 3.578799999999999955e+02 3.578600000000000136e+02 3.578799999999999955e+02 3.578600000000000136e+02 3.578799999999999955e+02 3.578600000000000136e+02 3.578399999999999750e+02 3.578299999999999841e+02 3.578299999999999841e+02 3.578299999999999841e+02 3.578100000000000023e+02 3.578199999999999932e+02 3.577900000000000205e+02 3.577900000000000205e+02 3.577900000000000205e+02 3.577699999999999818e+02 3.577900000000000205e+02 3.578199999999999932e+02 3.578500000000000227e+02 3.578999999999999773e+02 3.578999999999999773e+02 3.579700000000000273e+02 3.580000000000000000e+02 3.580099999999999909e+02 3.580600000000000023e+02 3.581000000000000227e+02 3.581399999999999864e+02 3.581499999999999773e+02 3.581899999999999977e+02 3.581899999999999977e+02 3.581999999999999886e+02 3.582300000000000182e+02 3.582300000000000182e+02 3.582300000000000182e+02 3.582400000000000091e+02 3.582400000000000091e+02 3.582400000000000091e+02 3.582699999999999818e+02 3.582599999999999909e+02 3.582599999999999909e+02 3.582300000000000182e+02 3.582599999999999909e+02 3.581999999999999886e+02 3.582200000000000273e+02 3.582500000000000000e+02 3.582400000000000091e+02 3.582599999999999909e+02 3.582599999999999909e+02 3.582799999999999727e+02 3.582599999999999909e+02 3.582799999999999727e+02 3.582699999999999818e+02 3.582699999999999818e+02 3.582799999999999727e+02 3.582799999999999727e+02 3.583000000000000114e+02 3.583000000000000114e+02 3.583000000000000114e+02 3.582900000000000205e+02 3.582599999999999909e+02 3.582400000000000091e+02 3.582300000000000182e+02 3.582400000000000091e+02 3.582500000000000000e+02 3.582300000000000182e+02 3.582599999999999909e+02 3.582900000000000205e+02 3.582900000000000205e+02 3.582699999999999818e+02 3.583100000000000023e+02 3.583100000000000023e+02 3.582799999999999727e+02 3.582599999999999909e+02 3.582599999999999909e+02 3.582500000000000000e+02 3.582400000000000091e+02 3.582599999999999909e+02 3.582599999999999909e+02 3.582599999999999909e+02 3.582699999999999818e+02 3.582500000000000000e+02 3.582500000000000000e+02 3.582500000000000000e+02 3.582300000000000182e+02 3.581899999999999977e+02 3.581499999999999773e+02 3.581399999999999864e+02 3.581399999999999864e+02 3.581200000000000045e+02 3.581200000000000045e+02 3.581200000000000045e+02 3.581000000000000227e+02 3.580899999999999750e+02 3.580600000000000023e+02 3.580500000000000114e+02 3.580199999999999818e+02 3.579499999999999886e+02 3.579499999999999886e+02 3.579399999999999977e+02 3.579200000000000159e+02 3.579100000000000250e+02 3.578999999999999773e+02 3.578999999999999773e+02 3.578999999999999773e+02 3.578999999999999773e+02 3.578999999999999773e+02 3.578899999999999864e+02 3.578799999999999955e+02
3.574800000000000182e+02 3.575099999999999909e+02 3.575600000000000023e+02 3.575699999999999932e+02 3.576000000000000227e+02 3.576200000000000045e+02 3.576499999999999773e+02 3.576999999999999886e+02 3.577500000000000000e+02 3.577799999999999727e+02 3.578100000000000023e+02 3.578000000000000114e+02 3.578299999999999841e+02 3.578500000000000227e+02 3.578299999999999841e+02 3.578000000000000114e+02 3.578000000000000114e+02 3.578100000000000023e+02 3.577500000000000000e+02 3.577799999999999727e+02 3.577699999999999818e+02 3.577599999999999909e+02 3.577500000000000000e+02 3.577500000000000000e+02 3.577500000000000000e+02 3.577300000000000182e+02 3.577699999999999818e+02 3.578000000000000114e+02 3.578100000000000023e+02 3.578199999999999932e+02 3.578600000000000136e+02 3.579200000000000159e+02 3.579499999999999886e+02 3.580000000000000000e+02 3.580600000000000023e+02 3.580799999999999841e+02 3.581299999999999955e+02 3.581600000000000250e+02 3.581700000000000159e+02 3.581800000000000068e+02 3.581999999999999886e+02 3.582200000000000273e+02 3.582099999999999795e+02 3.582400000000000091e+02 3.582300000000000182e+02 3.582099999999999795e+02 3.581899999999999977e+02 3.582099999999999795e+02 3.582300000000000182e+02 3.582400000000000091e+02 3.582300000000000182e+02 3.582699999999999818e+02 3.582400000000000091e+02 3.582300000000000182e+02 3.582500000000000000e+02 3.582400000000000091e+02 3.582300000000000182e+02 3.582300000000000182e+02 3.582400000000000091e+02 3.582400000000000091e+02 3.582599999999999909e+02 3.582699999999999818e+02 3.582500000000000000e+02 3.582500000000000000e+02 3.582799999999999727e+02 3.582699999999999818e+02 3.582799999999999727e+02 3.582599999999999909e+02 3.582300000000000182e+02 3.582300000000000182e+02 3.582200000000000273e+02 3.581999999999999886e+02 3.582099999999999795e+02 3.581999999999999886e+02 3.581800000000000068e+02 3.581899999999999977e+02 3.582500000000000000e+02 3.582400000000000091e+02 3.582500000000000000e+02 3.583000000000000114e+02 3.582900000000000205e+02 3.582500000000000000e+02 3.582500000000000000e+02 3.582300000000000182e+02 3.582200000000000273e+02 3.582200000000000273e+02 3.581999999999999886e+02 3.582300000000000182e+02 3.582300000000000182e+02 3.582300000000000182e+02 3.582300000000000182e+02 3.582200000000000273e+02 3.581999999999999886e+02 3.581399999999999864e+02 3.581600000000000250e+02 3.581399999999999864e+02 3.581000000000000227e+02 3.580899999999999750e+02 3.580899999999999750e+02 3.580899999999999750e+02 3.581100000000000136e+02 3.580799999999999841e+02 3.580699999999999932e+02 3.580400000000000205e+02 3.580500000000000114e+02 3.580199999999999818e+02 3.579300000000000068e+02 3.579300000000000068e+02 3.579200000000000159e+02 3.578899999999999864e+02 3.578799999999999955e+02 3.578899999999999864e+02 3.578799999999999955e+02 3.578799999999999955e+02 3.578799999999999955e+02 3.578700000000000045e+02 3.578700000000000045e+02 3.578600000000000136e+02
3.574800000000000182e+02 3.575099999999999909e+02 3.575299999999999727e+02 3.575500000000000114e+02 3.576000000000000227e+02 3.575899999999999750e+02 3.576100000000000136e+02 3.576399999999999864e+02 3.576800000000000068e+02 3.577300000000000182e+02 3.577799999999999727e+02 3.578100000000000023e+02 3.578199999999999932e+02 3.578199999999999932e+02 3.578000000000000114e+02 3.577799999999999727e+02 3.577699999999999818e+02 3.577400000000000091e+02 3.577500000000000000e+02 3.577500000000000000e+02 3.577599999999999909e+02 3.577200000000000273e+02 3.577200000000000273e+02 3.577099999999999795e+02 3.577300000000000182e+02 3.577200000000000273e+02 3.577500000000000000e+02 3.577599999999999909e+02 3.577900000000000205e+02 3.578299999999999841e+02 3.578399999999999750e+02 3.578700000000000045e+02 3.579200000000000159e+02 3.579599999999999795e+02 3.580400000000000205e+02 3.580600000000000023e+02 3.580899999999999750e+02 3.581200000000000045e+02 3.581200000000000045e+02 3.581499999999999773e+02 3.581700000000000159e+02 3.581899999999999977e+02 3.582099999999999795e+02 3.582200000000000273e+02 3.581899999999999977e+02 3.581899999999999977e+02 3.581700000000000159e+02 3.582099999999999795e+02 3.581800000000000068e+02 3.582099999999999795e+02 3.582099999999999795e+02 3.581999999999999886e+02 3.582099999999999795e+02 3.581899999999999977e+02 3.582099999999999795e+02 3.582099999999999795e+02 3.581899999999999977e+02 3.582099999999999795e+02 3.582400000000000091e+02 3.582200000000000273e+02 3.582400000000000091e+02 3.582300000000000182e+02 3.582300000000000182e+02 3.582400000000000091e+02 3.582400000000000091e+02 3.582500000000000000e+02 3.582300000000000182e+02 3.582099999999999795e+02 3.581899999999999977e+02 3.581899999999999977e+02 3.581800000000000068e+02 3.581800000000000068e+02 3.581499999999999773e+02 3.581700000000000159e+02 3.581800000000000068e+02 3.582099999999999795e+02 3.581700000000000159e+02 3.582099999999999795e+02 3.582099999999999795e+02 3.582300000000000182e+02 3.582200000000000273e+02 3.581999999999999886e+02 3.581999999999999886e+02 3.581800000000000068e+02 3.581700000000000159e+02 3.581499999999999773e+02 3.581800000000000068e+02 3.581899999999999977e+02 3.581899999999999977e+02 3.581800000000000068e+02 3.581800000000000068e+02 3.581700000000000159e+02 3.581499999999999773e+02 3.581399999999999864e+02 3.581200000000000045e+02 3.580799999999999841e+02 3.580600000000000023e+02 3.580600000000000023e+02 3.580699999999999932e+02 3.580699999999999932e+02 3.580699999999999932e+02 3.580799999999999841e+02 3.580699999999999932e+02 3.580500000000000114e+02 3.580500000000000114e+02 3.580000000000000000e+02 3.579100000000000250e+02 3.579100000000000250e+02 3.578899999999999864e+02 3.578700000000000045e+02 3.578700000000000045e+02 3.578700000000000045e+02 3.578700000000000045e+02 3.578700000000000045e+02 3.578700000000000045e+02 3.578600000000000136e+02 3.578500000000000227e+02 3.578399999999999750e+02
3.574800000000000182e+02 3.574900000000000091e+02 3.575199999999999818e+02 3.575500000000000114e+02 3.575799999999999841e+02 3.575899999999999750e+02 3.576499999999999773e+02 3.576600000000000250e+02 3.576899999999999977e+02 3.577099999999999795e+02 3.577699999999999818e+02 3.577799999999999727e+02 3.577699999999999818e+02 3.578000000000000114e+02 3.577699999999999818e+02 3.577699999999999818e+02 3.577599999999999909e+02 3.577500000000000000e+02 3.577699999999999818e+02 3.577400000000000091e+02 3.577200000000000273e+02 3.577099999999999795e+02 3.577099999999999795e+02 3.577200000000000273e+02 3.576999999999999886e+02 3.577099999999999795e+02 3.577300000000000182e+02 3.577200000000000273e+02 3.577599999999999909e+02 3.577900000000000205e+02 3.578199999999999932e+02 3.578600000000000136e+02 3.579200000000000159e+02 3.579499999999999886e+02 3.580000000000000000e+02 3.580400000000000205e+02 3.580699999999999932e+02 3.580899999999999750e+02 3.581499999999999773e+02 3.581399999999999864e+02 3.581899999999999977e+02 3.581800000000000068e+02 3.581999999999999886e+02 3.581899999999999977e+02 3.581700000000000159e+02 3.581700000000000159e+02 3.581700000000000159e+02 3.581800000000000068e+02 3.581899999999999977e+02 3.581800000000000068e+02 3.581899999999999977e+02 3.581800000000000068e+02 3.581700000000000159e+02 3.581800000000000068e+02 3.581899999999999977e+02 3.581999999999999886e+02 3.581999999999999886e+02 3.582099999999999795e+02 3.582200000000000273e+02 3.582200000000000273e+02 3.582200000000000273e+02 3.582300000000000182e+02 3.582200000000000273e+02 3.582099999999999795e+02 3.582300000000000182e+02 3.581999999999999886e+02 3.582099999999999795e+02 3.581899999999999977e+02 3.581800000000000068e+02 3.581700000000000159e+02 3.581499999999999773e+02 3.581399999999999864e+02 3.581299999999999955e+02 3.581399999999999864e+02 3.581600000000000250e+02 3.581399999999999864e+02 3.581499999999999773e+02 3.581800000000000068e+02 3.581700000000000159e+02 3.581800000000000068e+02 3.581600000000000250e+02 3.581700000000000159e+02 3.581399999999999864e+02 3.581200000000000045e+02 3.581100000000000136e+02 3.581200000000000045e+02 3.581200000000000045e+02 3.581499999999999773e+02 3.581399999999999864e+02 3.581399999999999864e+02 3.581299999999999955e+02 3.581100000000000136e+02 3.581200000000000045e+02 3.580899999999999750e+02 3.580500000000000114e+02 3.580500000000000114e+02 3.580400000000000205e+02 3.580199999999999818e+02 3.580400000000000205e+02 3.580299999999999727e+02 3.580600000000000023e+02 3.580299999999999727e+02 3.580299999999999727e+02 3.579900000000000091e+02 3.579900000000000091e+02 3.579800000000000182e+02 3.578899999999999864e+02 3.578899999999999864e+02 3.578799999999999955e+02 3.578700000000000045e+02 3.578600000000000136e+02 3.578600000000000136e+02 3.578600000000000136e+02 3.578600000000000136e+02 3.578500000000000227e+02 3.578500000000000227e+02 3.578399999999999750e+02 3.578299999999999841e+02
3.574700000000000273e+02 3.574700000000000273e+02 3.575299999999999727e+02 3.575400000000000205e+02 3.575500000000000114e+02 3.575799999999999841e+02 3.576299999999999955e+02 3.576499999999999773e+02 3.576899999999999977e+02 3.577300000000000182e+02 3.577699999999999818e+02 3.577900000000000205e+02 3.578000000000000114e+02 3.578000000000000114e+02 3.577400000000000091e+02 3.577900000000000205e+02 3.577900000000000205e+02 3.578000000000000114e+02 3.577799999999999727e+02 3.577500000000000000e+02 3.577300000000000182e+02 3.577300000000000182e+02 3.577200000000000273e+02 3.577300000000000182e+02 3.576800000000000068e+02 3.577099999999999795e+02 3.577599999999999909e+02 3.577500000000000000e+02 3.577900000000000205e+02 3.578000000000000114e+02 3.578299999999999841e+02 3.578700000000000045e+02 3.579100000000000250e+02 3.579700000000000273e+02 3.580199999999999818e+02 3.580500000000000114e+02 3.580699999999999932e+02 3.581200000000000045e+02 3.581399999999999864e+02 3.581299999999999955e+02 3.581499999999999773e+02 3.581700000000000159e+02 3.581800000000000068e+02 3.581800000000000068e+02 3.581800000000000068e+02 3.581499999999999773e+02 3.581600000000000250e+02 3.581700000000000159e+02 3.581700000000000159e+02 3.581899999999999977e+02 3.581800000000000068e+02 3.581600000000000250e+02 3.581800000000000068e+02 3.581700000000000159e+02 3.581700000000000159e+02 3.581899999999999977e+02 3.582099999999999795e+02 3.582200000000000273e+02 3.582200000000000273e+02 3.582200000000000273e+02 3.581999999999999886e+02 3.582200000000000273e+02 3.582400000000000091e+02 3.582200000000000273e+02 3.581999999999999886e+02 3.581999999999999886e+02 3.581999999999999886e+02 3.581800000000000068e+02 3.581800000000000068e+02 3.581499999999999773e+02 3.581100000000000136e+02 3.581299999999999955e+02 3.581299999999999955e+02 3.581299999999999955e+02 3.581600000000000250e+02 3.581600000000000250e+02 3.581700000000000159e+02 3.581700000000000159e+02 3.581499999999999773e+02 3.581899999999999977e+02 3.581700000000000159e+02 3.581499999999999773e+02 3.581399999999999864e+02 3.581200000000000045e+02 3.581499999999999773e+02 3.581200000000000045e+02 3.581000000000000227e+02 3.580799999999999841e+02 3.581299999999999955e+02 3.581000000000000227e+02 3.581100000000000136e+02 3.581100000000000136e+02 3.580899999999999750e+02 3.580500000000000114e+02 3.580099999999999909e+02 3.580199999999999818e+02 3.580299999999999727e+02 3.580199999999999818e+02 3.579900000000000091e+02 3.580000000000000000e+02 3.580299999999999727e+02 3.580099999999999909e+02 3.580099999999999909e+02 3.580000000000000000e+02 3.580199999999999818e+02 3.579700000000000273e+02 3.578799999999999955e+02 3.578700000000000045e+02 3.578600000000000136e+02 3.578500000000000227e+02 3.578399999999999750e+02 3.578399999999999750e+02 3.578500000000000227e+02 3.578500000000000227e+02 3.578399999999999750e+02 3.578399999999999750e+02 3.578299999999999841e+02 3.578199999999999932e+02
3.574700000000000273e+02 3.574700000000000273e+02 3.575099999999999909e+02 3.575099999999999909e+02 3.575299999999999727e+02 3.575799999999999841e+02 3.575899999999999750e+02 3.576100000000000136e+02 3.576800000000000068e+02 3.577500000000000000e+02 3.577599999999999909e+02 3.577900000000000205e+02 3.577900000000000205e+02 3.578000000000000114e+02 3.577799999999999727e+02 3.577799999999999727e+02 3.577699999999999818e+02 3.577699999999999818e+02 3.577699999999999818e+02 3.577900000000000205e+02 3.577500000000000000e+02 3.577300000000000182e+02 3.577099999999999795e+02 3.577099999999999795e+02 3.576899999999999977e+02 3.576999999999999886e+02 3.577300000000000182e+02 3.577400000000000091e+02 3.577500000000000000e+02 3.577900000000000205e+02 3.578100000000000023e+02 3.578500000000000227e+02 3.579399999999999977e+02 3.579800000000000182e+02 3.580199999999999818e+02 3.580699999999999932e+02 3.580899999999999750e+02 3.580899999999999750e+02 3.581299999999999955e+02 3.581499999999999773e+02 3.581700000000000159e+02 3.581899999999999977e+02 3.581899999999999977e+02 3.581800000000000068e+02 3.581700000000000159e+02 3.581899999999999977e+02 3.581700000000000159e+02 3.581700000000000159e+02 3.581899999999999977e+02 3.581899999999999977e+02 3.582099999999999795e+02 3.581899999999999977e+02 3.581700000000000159e+02 3.581700000000000159e+02 3.581800000000000068e+02 3.581700000000000159e+02 3.581700000000000159e+02 3.582200000000000273e+02 3.581999999999999886e+02 3.581999999999999886e+02 3.581999999999999886e+02 3.581999999999999886e+02 3.581999999999999886e+02 3.581899999999999977e+02 3.581899999999999977e+02 3.582099999999999795e+02 3.581899999999999977e+02 3.581700000000000159e+02 3.581600000000000250e+02 3.581499999999999773e+02 3.581399999999999864e+02 3.581299999999999955e+02 3.581100000000000136e+02 3.581100000000000136e+02 3.581499999999999773e+02 3.581499999999999773e+02 3.581499999999999773e+02 3.581600000000000250e+02 3.581600000000000250e+02 3.581700000000000159e+02 3.581700000000000159e+02 3.581499999999999773e+02 3.581600000000000250e+02 3.581200000000000045e+02 3.580899999999999750e+02 3.581200000000000045e+02 3.581000000000000227e+02 3.580899999999999750e+02 3.580899999999999750e+02 3.580799999999999841e+02 3.580799999999999841e+02 3.580799999999999841e+02 3.580400000000000205e+02 3.580500000000000114e+02 3.580400000000000205e+02 3.580099999999999909e+02 3.580099999999999909e+02 3.580000000000000000e+02 3.580099999999999909e+02 3.579900000000000091e+02 3.580099999999999909e+02 3.580099999999999909e+02 3.580000000000000000e+02 3.580000000000000000e+02 3.580000000000000000e+02 3.579700000000000273e+02 3.578700000000000045e+02 3.578600000000000136e+02 3.578500000000000227e+02 3.578399999999999750e+02 3.578299999999999841e+02 3.578299999999999841e+02 3.578299999999999841e+02 3.578299999999999841e+02 3.578299999999999841e+02 3.578199999999999932e+02 3.578199999999999932e+02 3.578100000000000023e+02
3.574300000000000068e+02 3.574499999999999886e+02 3.574800000000000182e+02 3.575099999999999909e+02 3.575099999999999909e+02 3.575199999999999818e+02 3.575699999999999932e+02 3.576100000000000136e+02 3.576600000000000250e+02 3.577099999999999795e+02 3.577799999999999727e+02 3.578000000000000114e+02 3.577900000000000205e+02 3.578100000000000023e+02 3.578000000000000114e+02 3.578000000000000114e+02 3.577599999999999909e+02 3.577699999999999818e+02 3.577500000000000000e+02 3.577699999999999818e+02 3.577200000000000273e+02 3.577200000000000273e+02 3.577200000000000273e+02 3.577200000000000273e+02 3.577300000000000182e+02 3.577200000000000273e+02 3.577300000000000182e+02 3.577599999999999909e+02 3.577799999999999727e+02 3.577799999999999727e+02 3.578299999999999841e+02 3.578799999999999955e+02 3.579100000000000250e+02 3.579800000000000182e+02 3.580000000000000000e+02 3.580500000000000114e+02 3.580899999999999750e+02 3.581100000000000136e+02 3.581299999999999955e+02 3.581600000000000250e+02 3.581999999999999886e+02 3.581899999999999977e+02 3.581800000000000068e+02 3.581700000000000159e+02 3.581499999999999773e+02 3.581800000000000068e+02 3.581800000000000068e+02 3.581800000000000068e+02 3.581800000000000068e+02 3.581600000000000250e+02 3.581999999999999886e+02 3.581899999999999977e+02 3.581999999999999886e+02 3.581800000000000068e+02 3.581700000000000159e+02 3.581800000000000068e+02 3.581899999999999977e+02 3.582099999999999795e+02 3.581999999999999886e+02 3.581899999999999977e+02 3.581999999999999886e+02 3.581800000000000068e+02 3.581800000000000068e+02 3.581999999999999886e+02 3.581999999999999886e+02 3.581800000000000068e+02 3.581999999999999886e+02 3.581700000000000159e+02 3.581600000000000250e+02 3.581299999999999955e+02 3.581100000000000136e+02 3.580899999999999750e+02 3.581000000000000227e+02 3.581100000000000136e+02 3.581299999999999955e+02 3.581000000000000227e+02 3.581299999999999955e+02 3.581499999999999773e+02 3.581499999999999773e+02 3.581700000000000159e+02 3.581600000000000250e+02 3.581299999999999955e+02 3.581200000000000045e+02 3.580899999999999750e+02 3.580799999999999841e+02 3.580799999999999841e+02 3.580899999999999750e+02 3.580799999999999841e+02 3.580799999999999841e+02 3.580799999999999841e+02 3.580500000000000114e+02 3.580500000000000114e+02 3.580299999999999727e+02 3.580400000000000205e+02 3.580299999999999727e+02 3.579900000000000091e+02 3.580000000000000000e+02 3.579800000000000182e+02 3.579900000000000091e+02 3.580000000000000000e+02 3.580099999999999909e+02 3.580000000000000000e+02 3.579800000000000182e+02 3.579700000000000273e+02 3.579599999999999795e+02 3.579399999999999977e+02 3.578600000000000136e+02 3.578500000000000227e+02 3.578399999999999750e+02 3.578299999999999841e+02 3.578199999999999932e+02 3.578199999999999932e+02 3.578199999999999932e+02 3.578299999999999841e+02 3.578100000000000023e+02 3.578100000000000023e+02 3.578000000000000114e+02 3.578000000000000114e+02
3.573999999999999773e+02 3.574300000000000068e+02 3.574399999999999977e+02 3.574599999999999795e+02 3.575000000000000000e+02 3.575000000000000000e+02 3.575500000000000114e+02 3.576000000000000227e+02 3.576200000000000045e+02 3.576899999999999977e+02 3.577400000000000091e+02 3.577699999999999818e+02 3.577599999999999909e+02 3.577799999999999727e+02 3.577500000000000000e+02 3.577200000000000273e+02 3.577400000000000091e+02 3.577300000000000182e+02 3.576899999999999977e+02 3.577099999999999795e+02 3.576899999999999977e+02 3.576899999999999977e+02 3.576700000000000159e+02 3.576800000000000068e+02 3.576700000000000159e+02 3.576899999999999977e+02 3.576999999999999886e+02 3.577300000000000182e+02 3.577599999999999909e+02 3.577799999999999727e+02 3.578199999999999932e+02 3.578399999999999750e+02 3.578899999999999864e+02 3.579499999999999886e+02 3.580099999999999909e+02 3.580199999999999818e+02 3.580699999999999932e+02 3.580899999999999750e+02 3.581100000000000136e+02 3.581399999999999864e+02 3.581600000000000250e+02 3.581600000000000250e+02 3.581700000000000159e+02 3.581700000000000159e+02 3.581600000000000250e+02 3.581600000000000250e+02 3.581399999999999864e+02 3.581800000000000068e+02 3.581899999999999977e+02 3.581999999999999886e+02 3.581999999999999886e+02 3.581899999999999977e+02 3.581600000000000250e+02 3.581800000000000068e+02 3.581600000000000250e+02 3.581800000000000068e+02 3.581899999999999977e+02 3.581999999999999886e+02 3.581899999999999977e+02 3.581899999999999977e+02 3.581700000000000159e+02 3.581800000000000068e+02 3.581800000000000068e+02 3.581800000000000068e+02 3.581800000000000068e+02 3.581800000000000068e+02 3.581700000000000159e+02 3.581600000000000250e+02 3.581299999999999955e+02 3.580899999999999750e+02 3.580799999999999841e+02 3.580799999999999841e+02 3.580600000000000023e+02 3.580799999999999841e+02 3.580899999999999750e+02 3.581100000000000136e+02 3.581299999999999955e+02 3.581399999999999864e+02 3.581399999999999864e+02 3.581399999999999864e+02 3.581399999999999864e+02 3.581100000000000136e+02 3.580799999999999841e+02 3.580699999999999932e+02 3.580699999999999932e+02 3.580600000000000023e+02 3.580500000000000114e+02 3.580500000000000114e+02 3.580600000000000023e+02 3.580400000000000205e+02 3.580600000000000023e+02 3.580600000000000023e+02 3.580500000000000114e+02 3.580400000000000205e+02 3.580000000000000000e+02 3.579900000000000091e+02 3.579900000000000091e+02 3.579599999999999795e+02 3.579900000000000091e+02 3.580000000000000000e+02 3.579900000000000091e+02 3.579900000000000091e+02 3.579700000000000273e+02 3.579499999999999886e+02 3.579399999999999977e+02 3.579399999999999977e+02 3.578500000000000227e+02 3.578399999999999750e+02 3.578299999999999841e+02 3.578199999999999932e+02 3.578199999999999932e+02 3.578199999999999932e+02 3.578199999999999932e+02 3.578199999999999932e+02 3.578100000000000023e+02 3.578000000000000114e+02 3.578000000000000114e+02 3.578000000000000114e+02
3.573700000000000045e+02 3.573700000000000045e+02 3.573999999999999773e+02 3.574200000000000159e+02 3.574499999999999886e+02 3.575099999999999909e+02 3.575400000000000205e+02 3.575699999999999932e+02 3.576100000000000136e+02 3.576399999999999864e+02 3.576999999999999886e+02 3.577300000000000182e+02 3.577300000000000182e+02 3.577200000000000273e+02 3.577300000000000182e+02 3.576999999999999886e+02 3.577099999999999795e+02 3.576899999999999977e+02 3.576899999999999977e+02 3.576700000000000159e+02 3.576600000000000250e+02 3.576399999999999864e+02 3.576600000000000250e+02 3.576499999999999773e+02 3.576499999999999773e+02 3.576600000000000250e+02 3.576800000000000068e+02 3.576999999999999886e+02 3.577300000000000182e+02 3.577500000000000000e+02 3.578199999999999932e+02 3.578399999999999750e+02 3.578899999999999864e+02 3.579499999999999886e+02 3.580000000000000000e+02 3.580400000000000205e+02 3.580299999999999727e+02 3.580600000000000023e+02 3.580899999999999750e+02 3.581200000000000045e+02 3.581200000000000045e+02 3.581200000000000045e+02 3.581399999999999864e+02 3.581399999999999864e+02 3.581399999999999864e+02 3.581200000000000045e+02 3.581600000000000250e+02 3.581600000000000250e+02 3.581600000000000250e+02 3.581899999999999977e+02 3.581600000000000250e+02 3.581499999999999773e+02 3.581499999999999773e+02 3.581600000000000250e+02 3.581700000000000159e+02 3.581399999999999864e+02 3.581499999999999773e+02 3.581899999999999977e+02 3.581800000000000068e+02 3.581700000000000159e+02 3.581800000000000068e+02 3.581899999999999977e+02 3.581600000000000250e+02 3.581600000000000250e+02 3.581600000000000250e+02 3.581700000000000159e+02 3.581600000000000250e+02 3.581299999999999955e+02 3.581200000000000045e+02 3.581000000000000227e+02 3.580799999999999841e+02 3.580799999999999841e+02 3.580600000000000023e+02 3.580600000000000023e+02 3.580699999999999932e+02 3.580799999999999841e+02 3.580899999999999750e+02 3.581000000000000227e+02 3.581200000000000045e+02 3.581299999999999955e+02 3.581299999999999955e+02 3.581100000000000136e+02 3.580899999999999750e+02 3.580699999999999932e+02 3.580500000000000114e+02 3.580400000000000205e+02 3.580299999999999727e+02 3.580299999999999727e+02 3.580400000000000205e+02 3.580400000000000205e+02 3.580099999999999909e+02 3.580000000000000000e+02 3.580199999999999818e+02 3.580000000000000000e+02 3.579800000000000182e+02 3.579499999999999886e+02 3.579300000000000068e+02 3.579399999999999977e+02 3.579599999999999795e+02 3.579700000000000273e+02 3.579900000000000091e+02 3.579900000000000091e+02 3.579599999999999795e+02 3.579499999999999886e+02 3.579399999999999977e+02 3.579300000000000068e+02 3.578399999999999750e+02 3.578299999999999841e+02 3.578199999999999932e+02 3.578100000000000023e+02 3.578100000000000023e+02 3.578100000000000023e+02 3.578100000000000023e+02 3.578100000000000023e+02 3.578000000000000114e+02 3.578000000000000114e+02 3.577900000000000205e+02 3.577900000000000205e+02
3.573299999999999841e+02 3.573700000000000045e+02 3.573700000000000045e+02 3.573799999999999955e+02 3.574300000000000068e+02 3.574599999999999795e+02 3.575000000000000000e+02 3.575400000000000205e+02 3.575699999999999932e+02 3.576100000000000136e+02 3.576399999999999864e+02 3.576700000000000159e+02 3.576800000000000068e+02 3.576800000000000068e+02 3.576899999999999977e+02 3.577099999999999795e+02 3.576899999999999977e+02 3.576700000000000159e+02 3.576499999999999773e+02 3.576700000000000159e+02 3.576499999999999773e+02 3.576299999999999955e+02 3.576200000000000045e+02 3.576299999999999955e+02 3.576399999999999864e+02 3.576499999999999773e+02 3.576700000000000159e+02 3.576899999999999977e+02 3.577099999999999795e+02 3.577300000000000182e+02 3.577900000000000205e+02 3.578199999999999932e+02 3.578899999999999864e+02 3.579499999999999886e+02 3.579800000000000182e+02 3.580299999999999727e+02 3.580500000000000114e+02 3.580600000000000023e+02 3.580799999999999841e+02 3.580899999999999750e+02 3.581000000000000227e+02 3.581000000000000227e+02 3.581200000000000045e+02 3.581100000000000136e+02 3.581200000000000045e+02 3.581299999999999955e+02 3.581399999999999864e+02 3.581399999999999864e+02 3.581399999999999864e+02 3.581399999999999864e+02 3.581499999999999773e+02 3.581600000000000250e+02 3.581399999999999864e+02 3.581600000000000250e+02 3.581399999999999864e+02 3.581200000000000045e+02 3.581200000000000045e+02 3.581299999999999955e+02 3.581600000000000250e+02 3.581499999999999773e+02 3.581600000000000250e+02 3.581700000000000159e+02 3.581399999999999864e+02 3.581499999999999773e+02 3.581299999999999955e+02 3.581299999999999955e+02 3.581200000000000045e+02 3.581299999999999955e+02 3.581100000000000136e+02 3.580799999999999841e+02 3.580600000000000023e+02 3.580500000000000114e+02 3.580600000000000023e+02 3.580500000000000114e+02 3.580400000000000205e+02 3.580500000000000114e+02 3.580500000000000114e+02 3.580799999999999841e+02 3.580899999999999750e+02 3.581000000000000227e+02 3.581000000000000227e+02 3.580799999999999841e+02 3.580600000000000023e+02 3.580400000000000205e+02 3.580099999999999909e+02 3.580199999999999818e+02 3.580099999999999909e+02 3.580099999999999909e+02 3.579900000000000091e+02 3.580099999999999909e+02 3.580000000000000000e+02 3.580000000000000000e+02 3.579800000000000182e+02 3.579700000000000273e+02 3.579399999999999977e+02 3.579100000000000250e+02 3.579200000000000159e+02 3.579300000000000068e+02 3.579499999999999886e+02 3.579499999999999886e+02 3.579499999999999886e+02 3.579700000000000273e+02 3.579599999999999795e+02 3.579499999999999886e+02 3.579200000000000159e+02 3.579100000000000250e+02 3.578299999999999841e+02 3.578199999999999932e+02 3.578100000000000023e+02 3.578100000000000023e+02 3.578100000000000023e+02 3.578100000000000023e+02 3.578000000000000114e+02 3.578000000000000114e+02 3.577900000000000205e+02 3.577799999999999727e+02 3.577799999999999727e+02 3.577799999999999727e+02
3.573000000000000114e+02 3.573000000000000114e+02 3.573500000000000227e+02 3.573600000000000136e+02 3.574100000000000250e+02 3.574200000000000159e+02 3.574499999999999886e+02 3.575000000000000000e+02 3.575299999999999727e+02 3.575799999999999841e+02 3.576000000000000227e+02 3.576200000000000045e+02 3.576200000000000045e+02 3.576499999999999773e+02 3.576299999999999955e+02 3.576100000000000136e+02 3.576499999999999773e+02 3.576399999999999864e+02 3.576100000000000136e+02 3.576200000000000045e+02 3.576299999999999955e+02 3.576200000000000045e+02 3.576200000000000045e+02 3.576299999999999955e+02 3.576299999999999955e+02 3.576499999999999773e+02 3.576399999999999864e+02 3.576700000000000159e+02 3.576899999999999977e+02 3.577099999999999795e+02 3.577799999999999727e+02 3.578199999999999932e+02 3.578600000000000136e+02 3.579300000000000068e+02 3.579599999999999795e+02 3.579900000000000091e+02 3.580099999999999909e+02 3.580299999999999727e+02 3.580400000000000205e+02 3.580500000000000114e+02 3.580400000000000205e+02 3.580799999999999841e+02 3.580600000000000023e+02 3.580799999999999841e+02 3.580799999999999841e+02 3.580799999999999841e+02 3.580899999999999750e+02 3.581100000000000136e+02 3.581000000000000227e+02 3.581000000000000227e+02 3.581200000000000045e+02 3.581100000000000136e+02 3.581100000000000136e+02 3.581299999999999955e+02 3.581200000000000045e+02 3.581000000000000227e+02 3.580899999999999750e+02 3.581200000000000045e+02 3.581200000000000045e+02 3.581399999999999864e+02 3.581299999999999955e+02 3.581299999999999955e+02 3.581000000000000227e+02 3.581100000000000136e+02 3.581100000000000136e+02 3.581100000000000136e+02 3.580899999999999750e+02 3.581000000000000227e+02 3.580600000000000023e+02 3.580299999999999727e+02 3.580400000000000205e+02 3.580400000000000205e+02 3.580099999999999909e+02 3.580099999999999909e+02 3.580099999999999909e+02 3.580299999999999727e+02 3.580400000000000205e+02 3.580500000000000114e+02 3.580699999999999932e+02 3.580699999999999932e+02 3.580699999999999932e+02 3.580500000000000114e+02 3.580400000000000205e+02 3.580400000000000205e+02 3.580299999999999727e+02 3.580199999999999818e+02 3.579900000000000091e+02 3.579900000000000091e+02 3.579900000000000091e+02 3.580000000000000000e+02 3.580000000000000000e+02 3.579900000000000091e+02 3.579599999999999795e+02 3.579300000000000068e+02 3.579200000000000159e+02 3.579100000000000250e+02 3.579100000000000250e+02 3.579200000000000159e+02 3.579300000000000068e+02 3.579499999999999886e+02 3.579300000000000068e+02 3.579499999999999886e+02 3.579300000000000068e+02 3.579399999999999977e+02 3.579200000000000159e+02 3.579300000000000068e+02 3.578199999999999932e+02 3.578100000000000023e+02 3.578000000000000114e+02 3.578000000000000114e+02 3.577900000000000205e+02 3.577900000000000205e+02 3.577900000000000205e+02 3.577900000000000205e+02 3.577799999999999727e+02 3.577799999999999727e+02 3.577699999999999818e+02 3.577699999999999818e+02
3.572599999999999909e+02 3.572599999999999909e+02 3.573100000000000023e+02 3.573500000000000227e+02 3.573600000000000136e+02 3.574100000000000250e+02 3.574200000000000159e+02 3.574399999999999977e+02 3.574700000000000273e+02 3.575199999999999818e+02 3.575500000000000114e+02 3.575799999999999841e+02 3.575699999999999932e+02 3.575899999999999750e+02 3.575799999999999841e+02 3.576000000000000227e+02 3.576000000000000227e+02 3.576000000000000227e+02 3.576200000000000045e+02 3.576100000000000136e+02 3.575899999999999750e+02 3.575799999999999841e+02 3.575799999999999841e+02 3.575899999999999750e+02 3.575899999999999750e+02 3.576200000000000045e+02 3.576000000000000227e+02 3.576200000000000045e+02 3.576399999999999864e+02 3.576800000000000068e+02 3.577400000000000091e+02 3.577900000000000205e+02 3.578299999999999841e+02 3.578899999999999864e+02 3.579200000000000159e+02 3.579499999999999886e+02 3.579800000000000182e+02 3.580000000000000000e+02 3.580099999999999909e+02 3.580000000000000000e+02 3.580099999999999909e+02 3.580199999999999818e+02 3.580400000000000205e+02 3.580400000000000205e+02 3.580299999999999727e+02 3.580299999999999727e+02 3.580400000000000205e+02 3.580699999999999932e+02 3.580799999999999841e+02 3.580699999999999932e+02 3.580899999999999750e+02 3.580799999999999841e+02 3.580600000000000023e+02 3.580699999999999932e+02 3.580699999999999932e+02 3.580799999999999841e+02 3.580799999999999841e+02 3.580799999999999841e+02 3.580799999999999841e+02 3.580799999999999841e+02 3.580799999999999841e+02 3.580699999999999932e+02 3.580799999999999841e+02 3.580600000000000023e+02 3.580699999999999932e+02 3.580799999999999841e+02 3.580699999999999932e+02 3.580500000000000114e+02 3.580199999999999818e+02 3.580099999999999909e+02 3.580099999999999909e+02 3.580099999999999909e+02 3.579900000000000091e+02 3.579800000000000182e+02 3.579900000000000091e+02 3.580099999999999909e+02 3.580299999999999727e+02 3.580199999999999818e+02 3.580299999999999727e+02 3.580400000000000205e+02 3.580400000000000205e+02 3.580199999999999818e+02 3.580000000000000000e+02 3.579900000000000091e+02 3.579800000000000182e+02 3.579800000000000182e+02 3.579700000000000273e+02 3.579800000000000182e+02 3.579700000000000273e+02 3.579399999999999977e+02 3.579399999999999977e+02 3.579499999999999886e+02 3.579200000000000159e+02 3.579200000000000159e+02 3.578999999999999773e+02 3.578999999999999773e+02 3.578999999999999773e+02 3.578899999999999864e+02 3.579100000000000250e+02 3.579100000000000250e+02 3.579300000000000068e+02 3.579100000000000250e+02 3.578999999999999773e+02 3.578999999999999773e+02 3.578899999999999864e+02 3.578999999999999773e+02 3.578000000000000114e+02 3.577799999999999727e+02 3.577799999999999727e+02 3.577799999999999727e+02 3.577799999999999727e+02 3.577900000000000205e+02 3.577799999999999727e+02 3.577799999999999727e+02 3.577699999999999818e+02 3.577599999999999909e+02 3.577599999999999909e+02 3.577500000000000000e+02
3.572599999999999909e+02 3.572799999999999727e+02 3.572900000000000205e+02 3.573199999999999932e+02 3.573399999999999750e+02 3.573500000000000227e+02 3.573799999999999955e+02 3.573899999999999864e+02 3.574300000000000068e+02 3.574900000000000091e+02 3.575099999999999909e+02 3.575400000000000205e+02 3.575400000000000205e+02 3.575400000000000205e+02 3.575600000000000023e+02 3.575600000000000023e+02 3.575600000000000023e+02 3.575799999999999841e+02 3.575899999999999750e+02 3.575799999999999841e+02 3.575600000000000023e+02 3.575799999999999841e+02 3.575699999999999932e+02 3.575699999999999932e+02 3.575799999999999841e+02 3.575899999999999750e+02 3.575899999999999750e+02 3.576299999999999955e+02 3.576499999999999773e+02 3.576899999999999977e+02 3.577400000000000091e+02 3.577799999999999727e+02 3.578100000000000023e+02 3.578700000000000045e+02 3.578899999999999864e+02 3.579499999999999886e+02 3.579599999999999795e+02 3.579900000000000091e+02 3.579900000000000091e+02 3.579900000000000091e+02 3.579800000000000182e+02 3.580099999999999909e+02 3.580199999999999818e+02 3.580199999999999818e+02 3.580199999999999818e+02 3.580299999999999727e+02 3.580299999999999727e+02 3.580299999999999727e+02 3.580299999999999727e+02 3.580400000000000205e+02 3.580500000000000114e+02 3.580500000000000114e+02 3.580299999999999727e+02 3.580199999999999818e+02 3.580099999999999909e+02 3.580199999999999818e+02 3.580500000000000114e+02 3.580500000000000114e+02 3.580400000000000205e+02 3.580400000000000205e+02 3.580299999999999727e+02 3.580199999999999818e+02 3.580400000000000205e+02 3.580400000000000205e+02 3.580400000000000205e+02 3.580400000000000205e+02 3.580299999999999727e+02 3.580199999999999818e+02 3.580099999999999909e+02 3.579800000000000182e+02 3.579800000000000182e+02 3.579599999999999795e+02 3.579700000000000273e+02 3.579599999999999795e+02 3.579599999999999795e+02 3.580000000000000000e+02 3.580000000000000000e+02 3.580000000000000000e+02 3.580099999999999909e+02 3.580099999999999909e+02 3.579800000000000182e+02 3.579599999999999795e+02 3.579599999999999795e+02 3.579800000000000182e+02 3.579599999999999795e+02 3.579499999999999886e+02 3.579399999999999977e+02 3.579300000000000068e+02 3.579100000000000250e+02 3.579100000000000250e+02 3.579200000000000159e+02 3.579100000000000250e+02 3.578899999999999864e+02 3.578600000000000136e+02 3.578700000000000045e+02 3.578399999999999750e+02 3.578399999999999750e+02 3.578799999999999955e+02 3.578799999999999955e+02 3.578999999999999773e+02 3.578799999999999955e+02 3.578799999999999955e+02 3.578700000000000045e+02 3.578600000000000136e+02 3.578600000000000136e+02 3.578399999999999750e+02 3.577699999999999818e+02 3.577599999999999909e+02 3.577599999999999909e+02 3.577599999999999909e+02 3.577599999999999909e+02 3.577599999999999909e+02 3.577599999999999909e+02 3.577500000000000000e+02 3.577500000000000000e+02 3.577400000000000091e+02 3.577400000000000091e+02 3.577300000000000182e+02
